NCOLS 353
NROWS 31
XLLCORNER 4606478.67514
YLLCORNER 2416874.73255
CELLSIZE 1000.000000
NODATA_VALUE -9999.0000
0.6000 9.2000 18.3000 9.8000 23.8000 49.9000 54.5000 71.3000 100.5000 120.7000 131.5000 147.6000 148.1000 152.9000 171.6000 191.9000 188.0000 196.6000 215.3000 237.1000 251.8000 269.6000 272.4000 272.3000 272.5000 277.3000 269.8000 263.6000 272.0000 273.0000 240.7000 200.0000 99.4000 41.3000 58.5000 93.0000 246.6000 283.0000 331.4000 318.9000 146.0000 72.4000 7.1000 0.0000 0.0000 0.0000 0.0000 0.0000 0.0000 0.0000 0.0000 0.0000 0.0000 0.0000 0.0000 0.0000 0.0000 8.4000 237.3000 260.0000 13.8000 0.0000 0.0000 0.0000 0.0000 0.0000 2.4000 18.7000 63.0000 96.8000 153.1000 201.2000 182.3000 83.1000 68.5000 86.2000 85.5000 55.6000 6.2000 11.0000 130.8000 222.0000 266.2000 284.8000 341.1000 357.3000 369.3000 388.3000 304.5000 16.1000 0.0000 0.0000 0.0000 0.0000 0.0000 0.0000 0.0000 0.0000 0.0000 3.2000 154.3000 410.1000 586.5000 611.9000 670.7000 810.6000 840.2000 782.7000 775.2000 773.5000 653.5000 676.6000 803.2000 790.1000 719.2000 601.5000 580.1000 568.7000 494.7000 504.0000 537.4000 535.2000 551.8000 585.4000 637.8000 664.2000 705.9000 687.9000 643.5000 631.0000 608.5000 595.3000 614.2000 637.6000 680.8000 726.3000 666.9000 809.8000 961.8000 969.4000 801.1000 584.3000 498.6000 467.2000 461.9000 499.4000 593.9000 714.9000 685.6000 758.3000 824.5000 782.7000 781.6000 773.7000 835.8000 718.7000 516.7000 432.3000 416.6000 381.9000 369.5000 358.4000 344.9000 353.1000 343.7000 333.7000 323.2000 350.8000 342.8000 326.1000 259.8000 278.2000 268.0000 251.6000 253.8000 250.5000 276.1000 277.3000 295.0000 281.1000 288.2000 306.1000 328.3000 356.6000 421.6000 449.6000 431.2000 415.3000 371.2000 378.5000 370.7000 413.0000 390.9000 401.1000 369.0000 360.5000 350.7000 319.3000 258.5000 285.5000 313.1000 253.4000 172.9000 278.1000 322.0000 360.0000 347.7000 322.1000 314.5000 258.3000 276.7000 241.7000 196.0000 256.3000 266.5000 241.3000 219.4000 217.1000 225.9000 253.4000 202.4000 196.6000 164.5000 191.9000 218.7000 216.8000 204.2000 238.1000 202.2000 241.8000 254.2000 247.8000 222.0000 215.1000 261.5000 255.0000 228.6000 244.6000 279.4000 275.6000 214.1000 183.5000 149.5000 135.4000 179.7000 185.1000 184.9000 171.5000 153.7000 142.7000 143.5000 140.7000 139.3000 142.9000 145.4000 151.7000 159.3000 166.6000 175.2000 182.0000 185.6000 184.0000 193.9000 202.0000 205.3000 214.5000 233.4000 238.7000 223.4000 251.6000 271.8000 279.3000 300.9000 283.2000 292.9000 279.9000 235.6000 206.5000 222.8000 247.9000 229.9000 215.6000 252.3000 222.7000 207.5000 198.5000 212.7000 215.8000 185.5000 145.6000 126.7000 124.0000 136.3000 172.0000 179.6000 207.8000 166.6000 149.4000 146.7000 161.6000 177.7000 179.9000 158.3000 191.8000 179.4000 194.4000 213.5000 233.0000 241.6000 220.4000 249.9000 269.9000 276.9000 276.3000 269.2000 257.0000 217.7000 209.6000 196.3000 156.7000 144.7000 138.4000 133.3000 148.3000 173.1000 192.3000 194.9000 183.6000 168.6000 137.4000 131.6000 142.0000 160.9000 188.4000 217.0000 207.9000 213.5000 185.7000 202.2000 198.8000 194.1000 190.8000 194.4000 206.9000 182.1000 164.8000 155.5000 157.4000 158.0000 170.9000 191.0000 151.9000 124.9000
2.5000 7.7000 4.6000 4.9000 11.9000 22.9000 42.8000 62.5000 75.1000 96.8000 128.2000 145.1000 138.5000 141.6000 190.7000 196.7000 210.7000 199.0000 207.6000 225.0000 235.5000 250.8000 259.2000 259.3000 266.0000 261.6000 248.0000 248.3000 260.9000 263.7000 257.3000 233.3000 186.7000 28.3000 70.0000 126.6000 262.4000 322.4000 401.6000 377.0000 236.3000 77.7000 5.1000 0.0000 0.0000 0.0000 0.0000 0.0000 0.0000 0.0000 0.0000 0.0000 0.0000 0.0000 0.0000 0.0000 0.0000 0.0000 157.2000 345.3000 70.8000 0.0000 0.0000 0.0000 0.0000 0.0000 0.0000 0.7000 24.7000 61.7000 119.2000 143.9000 153.6000 106.5000 43.5000 25.1000 30.7000 17.9000 0.9000 3.7000 122.1000 242.5000 287.6000 273.7000 263.1000 348.8000 361.3000 380.6000 418.5000 226.1000 6.8000 0.0000 0.0000 0.0000 0.0000 0.0000 0.0000 0.0000 0.0000 0.0000 73.9000 335.6000 524.0000 550.3000 593.4000 743.0000 804.7000 764.2000 724.6000 706.7000 674.2000 601.1000 693.3000 742.2000 641.1000 570.9000 511.4000 473.5000 466.6000 466.8000 469.2000 485.2000 566.7000 625.5000 678.0000 718.9000 746.8000 747.5000 750.2000 752.3000 809.3000 719.2000 662.8000 657.5000 582.2000 538.0000 546.0000 715.4000 869.3000 868.1000 838.5000 773.0000 548.5000 466.6000 530.5000 620.1000 594.2000 635.3000 661.3000 715.4000 806.7000 717.4000 706.1000 792.3000 803.2000 730.4000 591.8000 516.1000 433.9000 412.5000 368.1000 370.0000 368.0000 356.0000 379.6000 335.8000 332.8000 343.4000 331.7000 310.3000 272.3000 281.9000 275.4000 287.1000 277.5000 273.5000 292.4000 277.7000 292.0000 296.8000 282.7000 293.6000 312.7000 330.7000 396.4000 420.7000 414.7000 414.5000 374.7000 353.1000 338.1000 354.2000 358.1000 355.2000 353.9000 360.2000 337.5000 337.1000 266.0000 216.7000 218.0000 173.6000 200.9000 235.4000 289.2000 333.7000 315.2000 328.5000 299.0000 302.7000 304.9000 241.6000 191.9000 252.2000 271.4000 240.7000 251.9000 289.6000 243.1000 229.8000 230.8000 173.3000 159.2000 202.6000 249.2000 246.1000 221.9000 251.8000 228.1000 242.3000 275.8000 271.1000 251.5000 247.3000 270.2000 281.5000 274.6000 294.5000 334.1000 301.8000 223.9000 202.2000 181.4000 132.7000 193.3000 214.8000 201.3000 187.2000 177.2000 157.6000 146.0000 140.2000 139.8000 145.9000 146.4000 146.7000 152.7000 158.8000 167.5000 173.0000 171.7000 174.9000 179.5000 186.8000 194.9000 210.0000 226.7000 206.9000 249.5000 323.9000 300.0000 312.6000 317.9000 302.2000 266.7000 263.9000 230.3000 225.2000 202.6000 220.6000 262.1000 233.4000 222.0000 212.1000 177.2000 170.1000 198.5000 188.0000 181.0000 155.5000 125.9000 126.1000 130.5000 166.4000 179.0000 199.2000 208.0000 212.5000 210.1000 186.1000 163.6000 165.8000 166.3000 201.1000 173.9000 192.8000 204.3000 234.3000 257.1000 243.7000 280.1000 260.4000 250.9000 272.2000 251.5000 242.4000 230.6000 196.3000 201.4000 182.0000 160.8000 137.8000 149.6000 161.8000 191.4000 208.9000 180.4000 170.1000 146.0000 137.0000 133.4000 135.4000 157.9000 195.6000 201.9000 197.0000 198.1000 179.0000 192.6000 184.5000 181.3000 172.8000 181.8000 192.6000 202.9000 171.2000 182.0000 179.0000 168.4000 151.2000 165.5000 131.2000 119.7000
0.4000 0.0000 0.0000 0.1000 8.0000 19.4000 36.7000 58.7000 64.8000 95.1000 128.5000 139.6000 120.8000 121.5000 162.2000 170.9000 196.6000 217.6000 202.2000 219.9000 235.8000 240.8000 247.8000 259.3000 275.9000 267.4000 246.8000 237.1000 232.3000 250.7000 245.8000 181.5000 89.5000 12.7000 125.4000 174.7000 286.7000 385.4000 443.7000 435.3000 311.8000 107.9000 7.9000 0.0000 0.0000 0.0000 0.0000 0.0000 0.0000 0.0000 0.0000 0.0000 0.0000 0.0000 0.0000 0.0000 0.0000 0.0000 56.9000 395.4000 191.6000 0.3000 0.0000 0.0000 0.0000 0.0000 0.0000 0.0000 1.9000 17.7000 31.4000 46.1000 70.1000 75.2000 24.9000 0.5000 0.8000 7.7000 6.0000 4.0000 90.4000 252.0000 343.1000 388.4000 211.6000 218.7000 346.0000 333.8000 351.5000 412.9000 257.9000 15.1000 0.4000 0.0000 0.0000 0.0000 0.0000 0.0000 0.0000 0.0000 10.7000 183.9000 414.8000 488.2000 542.9000 663.5000 749.6000 796.8000 877.7000 753.2000 643.2000 611.5000 562.8000 579.6000 588.3000 589.0000 535.6000 458.9000 456.9000 455.2000 469.3000 464.2000 517.1000 593.1000 656.4000 689.7000 690.2000 755.0000 878.4000 895.7000 931.1000 929.6000 840.5000 784.0000 703.5000 672.0000 681.0000 713.2000 725.8000 754.6000 772.9000 781.0000 695.4000 532.6000 496.5000 545.3000 609.4000 658.6000 650.2000 676.8000 717.1000 738.6000 683.5000 677.1000 678.4000 624.4000 451.7000 474.8000 443.6000 412.7000 371.3000 398.2000 397.2000 374.3000 395.8000 413.8000 345.1000 335.9000 329.1000 348.1000 317.1000 300.1000 263.8000 269.6000 286.0000 293.6000 310.2000 272.4000 287.2000 303.9000 294.8000 297.4000 310.3000 354.4000 370.3000 377.4000 372.7000 383.7000 355.9000 323.2000 326.8000 350.4000 339.2000 337.2000 332.9000 342.5000 338.3000 323.1000 320.7000 219.1000 165.6000 162.2000 212.6000 237.1000 262.4000 300.1000 305.2000 329.5000 309.9000 273.0000 264.5000 222.7000 216.2000 248.6000 282.1000 270.9000 277.6000 231.2000 200.7000 185.7000 222.4000 269.0000 204.6000 178.0000 223.9000 265.6000 286.5000 245.2000 223.5000 234.0000 288.4000 284.6000 295.1000 306.7000 336.7000 317.2000 281.9000 322.2000 372.1000 276.1000 226.5000 205.8000 184.4000 151.9000 141.7000 174.7000 183.7000 202.7000 190.0000 175.0000 154.2000 146.6000 142.8000 144.8000 146.1000 145.1000 149.1000 153.4000 156.9000 162.6000 163.8000 168.3000 173.9000 183.8000 191.2000 200.4000 213.2000 196.7000 242.0000 272.8000 280.0000 313.1000 306.4000 289.4000 259.2000 260.3000 234.8000 213.8000 219.9000 196.3000 225.8000 244.2000 239.1000 222.5000 185.0000 152.3000 150.4000 137.9000 131.0000 130.9000 138.9000 152.7000 131.1000 154.9000 162.0000 155.4000 186.1000 198.9000 224.6000 255.3000 253.0000 243.0000 171.3000 168.2000 176.8000 212.6000 236.5000 233.8000 267.2000 300.2000 287.7000 282.3000 243.2000 235.3000 262.2000 218.5000 228.2000 208.2000 179.7000 183.0000 152.0000 144.9000 174.9000 191.2000 229.3000 229.0000 200.9000 176.0000 142.1000 136.3000 155.5000 157.8000 143.2000 164.9000 175.2000 180.2000 188.6000 169.6000 182.8000 173.1000 167.4000 179.8000 178.9000 195.2000 209.8000 198.9000 201.3000 204.3000 198.1000 155.9000 137.4000 122.0000 121.1000
0.0000 0.0000 0.0000 0.0000 0.4000 13.0000 19.0000 41.6000 43.8000 61.6000 97.0000 121.3000 121.7000 125.5000 164.2000 168.3000 181.2000 206.3000 205.2000 208.2000 224.6000 234.4000 247.0000 256.5000 270.7000 272.5000 250.6000 227.6000 219.0000 236.7000 226.2000 222.6000 124.1000 10.9000 102.1000 155.6000 208.4000 363.5000 428.4000 467.7000 381.6000 170.0000 19.7000 0.0000 0.0000 0.0000 0.0000 0.0000 0.0000 0.0000 0.0000 0.0000 0.0000 0.0000 0.0000 0.0000 0.0000 0.0000 62.3000 414.6000 378.2000 42.8000 0.0000 0.0000 0.0000 0.0000 0.0000 0.0000 0.0000 0.0000 0.0000 0.2000 2.0000 4.2000 2.0000 0.0000 0.0000 0.0000 0.0000 9.5000 101.0000 233.0000 356.9000 476.1000 383.1000 148.6000 241.1000 331.7000 349.7000 402.2000 430.9000 281.0000 143.5000 1.0000 0.0000 0.0000 0.0000 0.0000 0.0000 0.0000 0.0000 63.4000 272.5000 422.7000 514.0000 589.7000 732.5000 774.8000 781.9000 780.4000 765.5000 638.9000 585.9000 521.1000 503.9000 588.1000 559.8000 484.2000 494.6000 504.3000 459.1000 511.0000 596.4000 711.3000 745.6000 735.0000 626.5000 647.5000 687.9000 842.5000 892.5000 859.5000 810.9000 762.5000 710.5000 761.8000 787.2000 863.7000 819.6000 840.8000 810.5000 809.0000 851.3000 714.3000 527.7000 512.8000 627.8000 721.2000 737.7000 707.0000 704.6000 762.5000 765.1000 698.3000 692.0000 742.0000 558.9000 449.2000 498.7000 426.0000 382.1000 392.1000 409.0000 405.5000 384.3000 365.8000 354.0000 338.2000 324.3000 346.5000 320.1000 318.0000 269.5000 257.9000 275.5000 274.9000 284.5000 275.5000 293.7000 324.9000 338.9000 303.2000 364.6000 362.4000 357.3000 363.6000 348.9000 358.7000 340.4000 340.1000 389.4000 458.6000 357.5000 326.7000 325.6000 320.2000 320.0000 342.6000 333.8000 246.7000 189.1000 207.7000 298.2000 325.2000 294.1000 286.7000 311.6000 352.9000 343.2000 308.3000 265.1000 246.9000 237.3000 256.5000 292.3000 278.1000 241.7000 203.4000 234.3000 224.2000 247.8000 341.9000 293.7000 187.6000 252.3000 238.3000 295.7000 304.4000 281.7000 250.6000 278.1000 324.7000 354.2000 400.8000 388.0000 364.4000 357.5000 370.9000 373.1000 331.8000 259.7000 224.8000 230.4000 179.0000 149.6000 146.3000 170.0000 191.6000 189.7000 176.9000 160.1000 153.7000 151.0000 145.7000 146.8000 147.4000 150.0000 151.5000 150.0000 154.6000 158.8000 164.5000 170.0000 176.5000 186.7000 191.3000 194.3000 202.2000 246.7000 256.9000 281.3000 329.2000 363.5000 337.2000 310.0000 270.6000 250.1000 224.3000 200.8000 212.4000 192.2000 209.1000 215.7000 190.8000 165.3000 143.0000 138.5000 132.6000 136.9000 150.7000 200.2000 177.7000 146.7000 133.2000 139.3000 144.8000 146.0000 157.6000 216.9000 240.8000 212.9000 225.8000 234.2000 230.0000 218.2000 189.3000 204.5000 212.6000 249.1000 280.2000 275.7000 277.0000 241.1000 218.0000 240.3000 213.8000 211.0000 197.9000 184.4000 164.4000 146.1000 176.0000 213.6000 228.5000 237.2000 242.3000 239.6000 166.2000 141.0000 148.5000 173.3000 189.2000 151.7000 144.6000 154.0000 164.0000 169.8000 160.2000 157.9000 158.9000 187.8000 204.3000 197.1000 210.8000 220.5000 214.8000 202.6000 192.2000 172.0000 203.6000 169.2000 123.0000 122.5000
0.0000 0.0000 0.0000 0.0000 0.2000 3.6000 9.5000 28.9000 45.0000 42.8000 64.6000 91.6000 113.5000 120.0000 141.5000 148.7000 170.5000 187.4000 195.6000 204.3000 225.3000 233.0000 231.5000 241.6000 250.8000 254.9000 250.0000 220.5000 218.4000 222.0000 219.2000 232.0000 209.9000 37.4000 42.0000 129.9000 158.9000 271.1000 391.0000 450.3000 434.0000 217.7000 70.5000 1.1000 0.0000 0.0000 0.0000 0.0000 0.0000 0.0000 0.0000 0.0000 0.0000 0.0000 0.0000 0.0000 0.0000 0.9000 190.0000 433.0000 480.2000 217.9000 2.9000 0.0000 0.0000 0.0000 0.0000 0.0000 0.0000 0.0000 0.0000 0.0000 0.0000 0.0000 0.0000 0.0000 0.0000 0.0000 0.0000 9.6000 121.7000 254.7000 353.2000 480.6000 506.2000 277.8000 88.1000 214.5000 374.2000 395.8000 381.2000 327.1000 161.5000 16.2000 11.2000 0.0000 0.0000 0.0000 0.0000 0.0000 0.0000 11.9000 89.6000 175.7000 282.0000 428.2000 623.5000 703.8000 745.2000 667.0000 660.4000 704.2000 615.6000 551.6000 502.2000 504.4000 569.1000 602.4000 662.6000 661.0000 629.8000 615.1000 681.6000 665.0000 693.6000 798.2000 778.8000 699.4000 663.3000 833.9000 904.0000 887.9000 781.3000 645.9000 649.2000 689.9000 743.3000 812.4000 807.6000 887.3000 966.1000 856.1000 878.5000 876.1000 696.1000 601.9000 745.5000 812.7000 803.1000 857.4000 764.4000 757.6000 777.1000 800.8000 796.3000 853.8000 733.6000 511.9000 416.9000 401.4000 373.0000 376.4000 391.0000 396.1000 381.1000 363.4000 352.1000 335.3000 322.8000 348.2000 327.7000 307.3000 291.4000 273.6000 263.2000 273.3000 296.4000 294.3000 290.2000 293.4000 303.1000 324.4000 378.3000 351.5000 345.7000 368.0000 349.4000 351.3000 332.3000 352.1000 339.8000 505.8000 622.3000 434.5000 375.3000 356.9000 346.4000 363.8000 361.6000 275.2000 150.7000 229.3000 330.1000 352.5000 362.3000 306.9000 343.1000 328.3000 356.0000 311.6000 246.6000 294.0000 239.5000 230.0000 277.3000 253.8000 237.6000 234.2000 274.9000 289.5000 288.4000 343.4000 271.7000 197.6000 265.9000 270.8000 243.0000 321.3000 342.7000 303.5000 300.7000 338.0000 388.0000 447.9000 434.5000 392.9000 419.2000 440.7000 393.9000 340.0000 286.3000 245.3000 233.9000 185.8000 178.8000 149.2000 164.1000 188.6000 190.1000 179.3000 165.2000 159.9000 163.1000 159.4000 154.5000 152.5000 150.0000 148.4000 149.3000 152.0000 156.6000 156.9000 165.2000 176.1000 182.3000 177.0000 190.0000 235.5000 277.0000 283.0000 307.4000 312.6000 331.0000 376.2000 356.4000 292.3000 289.7000 230.8000 201.3000 178.6000 170.3000 178.5000 188.5000 179.6000 154.5000 137.3000 135.4000 134.2000 201.8000 215.9000 253.8000 206.7000 157.8000 141.9000 149.5000 182.3000 183.3000 150.5000 154.5000 177.9000 198.9000 263.8000 258.8000 293.5000 303.6000 253.6000 223.8000 242.3000 272.8000 281.0000 251.4000 286.2000 269.0000 210.4000 231.8000 236.7000 202.6000 201.0000 169.4000 158.4000 205.9000 227.7000 212.6000 208.5000 235.7000 221.4000 226.7000 170.8000 207.3000 212.0000 199.6000 242.5000 211.8000 174.0000 161.3000 148.0000 151.5000 159.1000 188.5000 197.1000 193.9000 217.3000 220.5000 222.9000 220.7000 196.4000 179.2000 170.5000 188.1000 178.0000 128.3000 123.8000 123.3000
0.0000 0.0000 0.0000 0.0000 0.0000 3.8000 6.8000 15.7000 35.0000 41.6000 46.4000 63.8000 83.8000 106.7000 129.5000 140.2000 159.1000 169.7000 177.0000 194.9000 219.4000 236.0000 224.8000 232.5000 235.6000 240.4000 234.1000 211.4000 205.5000 207.1000 206.9000 201.2000 204.1000 74.2000 9.2000 108.4000 123.6000 186.5000 330.9000 385.0000 437.1000 300.2000 130.5000 15.0000 0.0000 0.0000 0.0000 0.0000 0.0000 0.0000 0.0000 0.0000 0.0000 0.0000 0.0000 0.0000 0.0000 0.1000 115.7000 347.9000 460.0000 401.8000 101.6000 0.0000 0.0000 0.0000 0.0000 0.0000 0.0000 0.0000 0.0000 0.0000 0.0000 0.0000 0.0000 0.0000 0.0000 0.0000 0.0000 5.1000 106.5000 209.6000 307.5000 408.7000 457.1000 428.0000 132.7000 55.9000 223.6000 383.5000 351.5000 269.9000 240.5000 50.8000 54.3000 0.1000 0.0000 0.0000 0.0000 0.0000 0.0000 0.1000 56.9000 194.2000 307.8000 291.5000 325.3000 464.7000 669.4000 620.4000 609.2000 704.0000 626.9000 542.6000 493.1000 487.8000 470.3000 547.3000 565.7000 705.3000 694.1000 670.6000 648.1000 635.7000 650.2000 752.4000 798.5000 846.7000 824.8000 821.1000 868.1000 797.6000 719.8000 563.5000 549.8000 628.9000 664.8000 728.6000 724.6000 777.8000 963.2000 990.0000 909.2000 959.4000 808.9000 662.1000 826.4000 849.1000 822.4000 898.3000 876.5000 767.8000 769.9000 806.9000 814.7000 811.6000 748.3000 615.7000 449.3000 390.5000 388.2000 379.1000 360.2000 382.8000 391.1000 375.3000 355.3000 315.2000 322.2000 333.7000 331.9000 310.2000 283.8000 270.1000 284.8000 317.3000 321.4000 332.0000 301.7000 301.8000 327.6000 330.5000 384.7000 371.2000 346.8000 355.0000 350.4000 341.0000 344.0000 357.1000 348.9000 432.2000 590.8000 475.9000 325.3000 330.4000 344.3000 336.4000 329.1000 312.1000 188.6000 200.8000 337.6000 378.7000 358.6000 311.0000 370.4000 377.4000 378.4000 295.2000 264.2000 251.3000 229.1000 290.1000 285.9000 266.9000 254.1000 259.9000 299.5000 349.1000 283.2000 269.2000 214.9000 317.5000 310.5000 327.3000 261.0000 258.6000 318.9000 371.2000 318.5000 349.9000 392.2000 395.9000 433.3000 370.7000 390.3000 421.3000 376.4000 394.0000 311.0000 273.2000 225.5000 241.1000 234.6000 156.6000 170.0000 214.7000 210.8000 190.6000 175.3000 162.1000 168.7000 169.4000 164.5000 161.1000 152.6000 146.5000 133.0000 157.3000 155.6000 156.4000 156.8000 163.5000 168.1000 187.2000 224.2000 234.7000 258.3000 267.6000 310.5000 291.4000 337.6000 376.3000 322.0000 289.1000 305.5000 260.3000 227.2000 186.3000 188.2000 167.1000 159.5000 158.4000 152.6000 139.8000 138.9000 164.9000 186.7000 208.4000 267.8000 230.7000 171.2000 155.3000 161.0000 168.1000 202.7000 220.9000 179.9000 153.8000 172.5000 223.0000 246.9000 278.7000 266.6000 314.7000 299.4000 274.6000 280.6000 285.4000 242.2000 255.0000 253.8000 228.5000 208.7000 241.5000 226.9000 189.7000 177.5000 265.0000 339.4000 305.1000 235.3000 192.1000 196.9000 189.5000 163.2000 167.5000 241.9000 259.2000 234.4000 274.2000 233.2000 231.9000 193.2000 175.4000 199.7000 176.3000 194.8000 226.2000 199.7000 217.0000 241.8000 237.2000 223.8000 214.4000 217.1000 206.4000 206.2000 165.2000 128.6000 124.6000 124.1000
0.0000 0.0000 0.0000 0.0000 0.0000 0.1000 0.3000 5.7000 27.4000 39.1000 44.1000 50.0000 65.4000 87.1000 121.5000 139.9000 152.2000 159.8000 162.1000 184.8000 212.0000 229.5000 234.1000 235.6000 231.5000 228.0000 223.9000 192.3000 183.6000 203.6000 193.8000 163.7000 123.6000 31.4000 29.4000 83.0000 63.6000 140.0000 238.0000 359.4000 397.8000 355.5000 249.5000 21.2000 0.0000 0.0000 0.0000 0.0000 0.0000 0.0000 0.0000 0.0000 0.0000 0.0000 0.0000 0.0000 0.0000 0.0000 4.5000 48.8000 215.3000 326.8000 201.0000 30.4000 0.0000 0.0000 0.0000 0.0000 0.0000 0.0000 0.0000 13.3000 0.1000 0.0000 0.0000 0.0000 0.0000 0.0000 0.3000 50.1000 141.4000 176.0000 197.3000 292.7000 339.6000 398.6000 310.4000 71.3000 38.2000 109.4000 179.0000 180.7000 163.2000 110.3000 15.4000 1.4000 0.0000 0.0000 0.0000 0.0000 0.0000 0.0000 0.6000 117.5000 346.5000 422.5000 368.4000 414.0000 633.3000 828.1000 612.6000 567.4000 562.9000 519.3000 487.7000 482.5000 460.6000 443.2000 453.1000 508.4000 623.4000 645.1000 558.7000 641.1000 720.2000 776.3000 763.5000 789.7000 788.8000 823.6000 888.5000 821.4000 646.1000 514.7000 537.1000 611.2000 681.8000 773.7000 745.1000 818.2000 861.8000 902.1000 918.0000 1038.8000 920.5000 750.0000 803.7000 913.0000 936.3000 910.9000 903.2000 844.9000 773.6000 781.6000 753.6000 724.0000 683.0000 698.7000 543.4000 420.7000 481.2000 465.9000 375.4000 348.1000 354.1000 355.4000 345.9000 334.0000 329.7000 334.8000 335.8000 307.3000 275.6000 289.7000 331.1000 357.0000 349.3000 352.1000 350.5000 367.7000 381.2000 369.8000 366.1000 384.8000 368.1000 327.9000 290.3000 239.0000 339.3000 346.2000 339.2000 354.3000 466.7000 351.2000 308.0000 314.2000 328.0000 327.0000 326.3000 305.4000 255.6000 162.5000 270.5000 370.9000 344.1000 338.1000 353.5000 374.8000 365.0000 270.6000 298.1000 227.1000 239.0000 309.2000 309.5000 277.1000 283.6000 274.3000 259.9000 277.8000 214.6000 184.0000 178.1000 266.3000 352.2000 378.4000 359.9000 271.8000 310.5000 328.8000 374.0000 422.8000 429.7000 363.2000 365.8000 377.9000 395.7000 348.6000 386.7000 326.6000 272.1000 260.0000 272.9000 244.6000 182.8000 150.2000 218.0000 240.3000 234.9000 206.8000 185.0000 168.7000 180.9000 183.2000 169.6000 169.7000 174.2000 173.8000 160.5000 178.5000 172.6000 164.5000 158.6000 198.2000 176.0000 186.6000 197.2000 208.7000 216.4000 229.3000 238.0000 270.6000 326.6000 374.9000 355.1000 322.7000 272.9000 243.9000 219.1000 218.3000 230.9000 201.7000 185.2000 169.8000 157.3000 142.9000 165.3000 238.8000 238.3000 247.4000 221.8000 184.4000 163.4000 166.5000 180.8000 175.1000 186.4000 217.1000 233.1000 211.7000 209.7000 172.6000 205.5000 218.7000 224.1000 241.8000 285.1000 273.4000 266.5000 276.8000 267.3000 222.4000 231.1000 234.2000 207.3000 229.8000 210.2000 209.1000 203.8000 283.6000 430.2000 370.2000 275.0000 219.2000 193.2000 180.7000 167.4000 169.9000 213.0000 269.3000 288.7000 300.3000 294.3000 279.2000 257.6000 225.3000 227.8000 217.2000 214.7000 218.0000 219.0000 225.0000 218.9000 225.5000 209.1000 215.2000 210.7000 208.0000 173.1000 148.6000 131.6000 127.4000 146.0000
0.0000 0.0000 0.0000 0.0000 0.0000 0.0000 0.0000 2.5000 17.2000 40.4000 37.6000 44.6000 54.6000 73.8000 99.5000 114.8000 132.9000 155.8000 161.8000 172.1000 195.4000 214.7000 227.8000 231.0000 234.0000 221.1000 205.4000 178.4000 166.9000 199.3000 191.2000 173.3000 146.0000 53.0000 30.9000 16.3000 37.5000 105.3000 147.0000 293.3000 387.8000 385.1000 294.3000 59.9000 0.0000 0.0000 0.0000 0.0000 0.0000 0.0000 0.0000 0.0000 0.0000 0.0000 0.0000 0.0000 0.0000 0.0000 0.0000 0.0000 54.6000 187.0000 129.7000 170.8000 31.2000 15.4000 84.3000 36.7000 1.9000 49.6000 85.3000 133.7000 40.7000 0.4000 0.0000 0.0000 0.0000 0.0000 0.0000 0.9000 35.5000 103.8000 116.5000 127.1000 251.7000 388.6000 379.8000 239.0000 46.4000 3.8000 6.2000 12.5000 28.6000 34.1000 2.2000 0.0000 0.0000 0.0000 0.0000 0.0000 0.0000 0.0000 0.0000 42.8000 277.0000 465.1000 539.0000 571.3000 789.1000 968.7000 843.0000 551.6000 514.9000 483.6000 541.4000 622.0000 516.4000 434.8000 430.3000 438.2000 452.7000 480.8000 446.0000 448.5000 585.3000 714.9000 705.6000 731.0000 716.6000 775.1000 833.7000 838.4000 778.2000 640.1000 583.7000 689.3000 761.1000 915.7000 843.2000 848.2000 862.4000 844.6000 840.5000 946.6000 981.7000 854.4000 795.1000 934.3000 972.6000 961.4000 882.5000 852.9000 776.3000 719.8000 703.7000 667.2000 633.4000 562.6000 455.1000 554.4000 565.1000 559.8000 463.9000 403.0000 330.3000 306.4000 330.6000 341.5000 342.4000 324.1000 335.3000 292.8000 288.7000 288.6000 314.8000 371.8000 376.8000 363.2000 358.3000 354.9000 362.8000 357.5000 356.6000 349.4000 277.7000 281.8000 322.6000 299.6000 258.0000 277.6000 294.9000 259.8000 351.8000 483.7000 383.0000 334.0000 341.1000 336.0000 296.2000 192.3000 191.9000 187.0000 299.0000 362.4000 362.7000 354.0000 371.3000 381.0000 356.8000 273.9000 284.5000 263.9000 303.8000 344.3000 318.1000 265.8000 325.2000 314.6000 283.5000 243.0000 215.4000 297.4000 259.3000 239.6000 257.3000 287.5000 349.0000 357.8000 339.3000 330.0000 408.6000 438.3000 391.2000 353.4000 309.9000 357.8000 362.6000 314.7000 403.6000 364.4000 271.0000 212.0000 197.0000 167.3000 142.1000 193.9000 235.6000 270.6000 267.7000 216.0000 198.8000 192.9000 193.5000 194.1000 183.0000 192.2000 179.8000 171.7000 167.9000 180.1000 197.2000 182.1000 162.3000 227.0000 216.1000 170.2000 192.1000 234.2000 230.5000 229.3000 238.1000 247.5000 276.1000 340.4000 379.2000 356.8000 327.2000 311.8000 269.2000 252.7000 232.1000 205.8000 191.2000 182.3000 154.2000 147.0000 209.1000 230.5000 293.8000 253.7000 219.9000 198.1000 201.3000 216.6000 194.6000 221.6000 194.2000 243.7000 285.8000 318.3000 323.2000 252.0000 187.8000 176.9000 187.8000 199.1000 228.5000 259.3000 258.0000 256.4000 253.0000 256.5000 216.4000 205.2000 196.1000 199.9000 195.9000 245.1000 242.6000 277.8000 433.8000 487.3000 342.0000 288.6000 256.9000 243.8000 201.5000 182.3000 257.6000 282.6000 274.0000 295.2000 275.2000 271.8000 264.8000 265.3000 268.2000 240.9000 249.3000 228.1000 247.3000 214.8000 194.3000 205.5000 200.5000 201.6000 197.7000 193.4000 168.4000 144.4000 132.8000 127.7000 130.2000
0.0000 0.0000 0.0000 0.0000 0.0000 0.0000 0.0000 0.0000 5.6000 27.1000 30.3000 34.2000 45.5000 51.4000 65.9000 90.3000 118.9000 151.4000 158.6000 159.9000 169.1000 184.9000 204.4000 218.5000 222.4000 210.4000 194.7000 166.2000 149.9000 174.2000 186.7000 184.0000 168.4000 121.1000 122.6000 94.7000 10.2000 54.7000 81.0000 147.3000 293.0000 405.5000 311.1000 83.4000 0.0000 0.0000 0.0000 0.0000 0.0000 0.0000 0.0000 0.0000 0.0000 0.0000 0.0000 0.0000 0.0000 0.0000 0.0000 0.0000 4.4000 49.4000 50.9000 211.7000 253.1000 202.8000 178.9000 107.9000 4.3000 1.4000 32.9000 88.1000 77.0000 14.0000 0.0000 0.0000 0.0000 0.0000 0.0000 0.0000 0.0000 4.1000 8.3000 0.6000 79.6000 244.4000 274.8000 300.2000 247.3000 34.7000 0.0000 0.0000 0.0000 0.0000 0.0000 0.0000 0.0000 0.0000 0.0000 0.0000 0.0000 0.0000 0.0000 11.3000 230.4000 503.4000 623.9000 651.9000 920.2000 992.6000 1040.6000 779.7000 543.5000 541.0000 602.3000 602.2000 605.7000 530.8000 468.4000 426.2000 438.9000 472.4000 508.1000 453.2000 445.3000 508.0000 609.9000 655.4000 705.7000 743.0000 773.1000 756.3000 757.8000 768.1000 774.7000 797.4000 735.0000 721.3000 884.3000 952.5000 952.4000 928.1000 958.3000 890.0000 940.1000 812.0000 792.6000 934.5000 985.6000 889.7000 860.9000 937.8000 951.4000 801.1000 665.5000 649.3000 610.7000 494.5000 511.6000 513.7000 531.8000 526.9000 481.7000 409.5000 329.4000 319.7000 319.5000 344.1000 341.6000 329.7000 328.7000 318.6000 297.6000 319.5000 301.0000 381.7000 419.8000 366.0000 350.4000 356.9000 353.0000 337.2000 296.7000 239.9000 319.0000 332.0000 341.1000 352.1000 347.5000 339.8000 339.9000 338.1000 289.0000 402.3000 586.1000 395.8000 342.2000 324.9000 319.9000 236.5000 159.8000 161.4000 281.9000 336.4000 351.3000 370.3000 377.4000 383.7000 313.6000 254.6000 260.1000 319.7000 365.0000 377.0000 308.0000 267.6000 330.9000 372.3000 325.8000 279.7000 235.9000 258.1000 264.6000 325.4000 351.4000 435.1000 411.8000 409.5000 461.1000 465.1000 418.2000 360.8000 326.9000 348.4000 280.7000 305.8000 290.9000 381.5000 355.8000 385.9000 296.1000 242.6000 169.7000 149.5000 175.9000 198.3000 234.1000 292.6000 258.4000 217.1000 202.9000 253.9000 210.9000 209.8000 196.6000 203.1000 190.3000 196.7000 189.9000 186.4000 197.7000 216.2000 172.2000 232.9000 242.1000 206.3000 185.2000 215.9000 217.6000 217.0000 231.2000 242.8000 273.9000 297.8000 340.2000 329.9000 292.6000 286.4000 272.1000 241.8000 237.6000 230.4000 188.5000 166.2000 145.0000 151.6000 248.2000 240.8000 294.8000 281.0000 230.7000 199.7000 251.7000 232.8000 239.5000 253.5000 247.5000 247.4000 301.4000 375.6000 320.2000 257.2000 204.6000 226.6000 199.0000 181.7000 200.3000 223.7000 225.9000 243.0000 273.5000 274.8000 279.3000 239.5000 212.5000 194.6000 225.7000 255.2000 304.9000 347.4000 413.1000 475.5000 408.0000 357.9000 295.1000 262.7000 214.2000 170.9000 202.0000 247.0000 227.0000 224.9000 233.5000 223.6000 225.7000 234.6000 266.6000 269.8000 281.3000 265.1000 246.4000 209.7000 222.3000 184.3000 173.7000 168.7000 168.5000 171.6000 159.3000 147.0000 138.9000 143.4000 166.2000
0.0000 0.0000 0.0000 0.0000 0.0000 0.0000 0.0000 0.0000 0.0000 2.6000 10.3000 6.6000 20.3000 39.9000 61.7000 86.7000 112.3000 140.0000 152.3000 153.4000 156.0000 175.8000 197.0000 206.9000 203.8000 200.3000 198.4000 180.3000 137.0000 175.5000 173.5000 180.6000 171.6000 157.0000 129.3000 48.9000 3.1000 11.1000 35.9000 56.6000 112.6000 271.6000 232.9000 19.1000 0.0000 0.0000 0.0000 0.0000 0.0000 0.0000 0.0000 0.0000 0.0000 0.0000 0.0000 0.0000 0.0000 0.0000 0.0000 0.0000 0.0000 5.5000 10.7000 142.9000 306.4000 249.9000 127.6000 55.0000 9.3000 0.0000 0.0000 3.8000 17.5000 11.8000 0.0000 0.0000 0.0000 0.0000 0.0000 0.0000 0.0000 0.0000 0.0000 0.0000 1.5000 55.3000 162.8000 237.3000 224.6000 186.4000 31.8000 0.0000 0.0000 0.0000 0.0000 0.0000 0.0000 0.0000 0.0000 0.0000 0.0000 0.0000 0.0000 39.4000 313.4000 535.9000 635.8000 745.5000 913.6000 1058.3000 1099.4000 989.8000 727.7000 581.1000 552.0000 561.3000 650.0000 651.3000 576.3000 475.7000 444.0000 527.3000 511.9000 458.8000 469.8000 448.6000 441.4000 466.1000 585.9000 655.5000 675.1000 726.5000 801.2000 781.1000 820.0000 820.5000 770.5000 669.2000 756.4000 853.9000 896.4000 971.6000 952.3000 957.9000 1027.3000 877.5000 780.5000 939.1000 933.3000 946.8000 920.4000 869.8000 990.7000 991.2000 722.1000 619.5000 610.0000 532.7000 584.4000 612.2000 567.8000 505.0000 467.6000 373.9000 352.1000 320.0000 328.1000 331.9000 343.5000 334.8000 326.9000 331.6000 332.6000 332.0000 315.3000 318.6000 376.9000 398.1000 366.6000 363.9000 351.4000 336.9000 254.9000 322.3000 335.4000 348.8000 380.8000 373.1000 449.5000 366.1000 340.9000 358.3000 379.3000 315.9000 315.0000 391.0000 337.4000 310.1000 237.0000 239.6000 213.5000 164.1000 193.1000 262.8000 334.2000 347.0000 363.9000 372.5000 362.4000 302.5000 287.3000 367.0000 370.4000 371.3000 333.3000 300.8000 379.9000 422.3000 419.4000 325.2000 238.3000 295.6000 284.7000 291.8000 343.5000 390.4000 421.9000 458.7000 495.9000 546.6000 495.7000 420.1000 366.8000 286.9000 282.4000 304.8000 265.1000 350.0000 317.5000 325.6000 301.0000 202.3000 169.8000 234.0000 269.0000 259.2000 309.7000 327.7000 276.3000 238.9000 262.3000 293.6000 255.4000 225.7000 233.9000 234.2000 215.7000 250.2000 237.5000 194.1000 229.9000 240.4000 218.3000 203.2000 271.5000 244.2000 219.9000 194.3000 209.2000 267.3000 248.8000 238.0000 271.5000 306.1000 354.9000 337.9000 318.8000 290.8000 242.4000 214.0000 229.4000 241.2000 215.0000 180.6000 146.2000 142.9000 206.0000 277.5000 309.9000 349.4000 261.2000 217.6000 260.1000 250.6000 295.8000 259.5000 330.9000 291.1000 318.8000 392.7000 303.1000 259.5000 230.6000 255.6000 231.9000 201.7000 180.0000 195.6000 199.3000 223.6000 259.7000 251.3000 282.1000 292.0000 238.9000 226.1000 258.9000 248.4000 305.0000 392.7000 446.1000 388.4000 311.5000 299.7000 250.2000 207.2000 162.7000 161.6000 157.7000 167.9000 173.6000 192.0000 197.6000 199.4000 205.2000 208.7000 220.8000 236.5000 245.4000 273.7000 256.9000 247.6000 239.1000 198.4000 225.9000 197.6000 155.7000 152.4000 162.6000 184.6000 206.3000 232.8000 238.5000
0.0000 0.0000 0.0000 0.0000 0.0000 0.0000 0.0000 0.0000 0.0000 0.0000 0.0000 2.2000 16.4000 41.1000 63.6000 74.4000 90.9000 118.5000 138.5000 150.1000 151.1000 165.1000 182.1000 183.6000 185.7000 189.2000 192.2000 189.3000 151.3000 153.4000 149.0000 168.6000 153.0000 123.7000 108.5000 35.2000 26.2000 23.0000 4.3000 1.4000 27.0000 89.5000 86.4000 0.0000 0.0000 0.0000 0.0000 0.0000 0.0000 0.0000 0.0000 0.0000 0.0000 0.0000 0.0000 0.0000 0.0000 0.0000 0.0000 0.0000 0.0000 2.7000 2.1000 60.5000 285.6000 215.6000 79.9000 17.7000 0.0000 0.0000 0.0000 0.0000 0.0000 0.0000 0.0000 0.0000 0.0000 0.0000 0.0000 0.0000 0.0000 0.0000 0.0000 0.0000 0.0000 0.0000 18.9000 93.2000 87.0000 66.7000 22.2000 0.0000 0.0000 0.0000 0.0000 0.0000 0.0000 0.0000 0.0000 0.0000 0.0000 0.0000 0.0000 54.4000 287.5000 528.2000 692.4000 870.5000 940.7000 1023.7000 1165.0000 1187.3000 965.6000 676.5000 512.4000 498.4000 537.9000 615.2000 641.9000 563.2000 431.1000 448.7000 494.1000 470.4000 548.8000 561.9000 510.6000 447.3000 448.5000 478.9000 494.6000 591.9000 739.7000 800.0000 721.6000 689.0000 741.0000 718.0000 758.4000 771.2000 795.3000 888.5000 884.9000 995.9000 1045.5000 926.1000 815.4000 899.0000 985.2000 922.1000 1018.9000 967.2000 903.9000 991.2000 880.9000 697.4000 611.5000 562.9000 607.9000 725.9000 724.5000 617.2000 565.0000 519.0000 437.2000 389.8000 346.4000 329.4000 338.9000 342.7000 326.0000 324.7000 327.6000 321.9000 263.3000 276.8000 293.9000 350.5000 364.8000 368.1000 280.8000 283.2000 339.5000 364.2000 350.4000 345.8000 357.3000 447.0000 453.4000 409.5000 424.6000 358.5000 389.8000 390.8000 330.4000 276.2000 287.2000 265.9000 323.7000 285.7000 312.0000 226.8000 236.7000 289.2000 316.7000 344.6000 362.5000 397.7000 375.3000 317.8000 315.4000 369.9000 368.2000 382.5000 355.6000 311.1000 377.0000 389.3000 403.0000 315.9000 291.2000 330.4000 342.6000 321.7000 342.4000 343.6000 373.0000 420.8000 420.5000 432.1000 473.9000 465.0000 416.1000 378.2000 433.6000 376.5000 280.2000 302.7000 283.1000 275.7000 283.9000 170.4000 236.7000 259.1000 328.2000 315.7000 341.9000 329.9000 316.0000 287.7000 318.8000 322.5000 293.4000 287.4000 300.3000 290.1000 261.9000 265.8000 245.6000 229.0000 271.7000 252.9000 229.6000 190.8000 290.0000 335.0000 340.5000 277.9000 226.7000 262.1000 286.2000 304.9000 265.5000 299.3000 359.1000 371.0000 349.9000 307.6000 274.6000 258.3000 213.7000 200.7000 190.1000 176.3000 151.5000 146.2000 160.1000 257.9000 313.1000 366.1000 300.6000 296.7000 327.4000 330.0000 347.4000 345.9000 328.8000 351.6000 376.6000 380.4000 338.7000 289.8000 253.8000 262.7000 292.0000 275.4000 230.1000 200.5000 194.5000 211.4000 234.3000 230.8000 265.8000 289.6000 283.7000 280.4000 278.2000 276.3000 300.2000 432.7000 426.4000 338.0000 287.1000 230.8000 192.9000 176.0000 181.6000 188.8000 191.6000 166.8000 158.5000 165.4000 182.0000 171.8000 176.7000 187.8000 199.8000 207.2000 227.9000 240.6000 264.6000 264.7000 228.7000 222.8000 244.1000 212.5000 208.2000 176.5000 202.2000 219.3000 276.6000 283.4000 270.6000
0.0000 0.0000 0.0000 0.0000 0.0000 0.0000 0.0000 0.0000 0.0000 0.0000 0.0000 0.3000 12.3000 29.3000 42.3000 58.0000 76.0000 101.4000 121.5000 137.3000 149.1000 150.1000 163.1000 165.7000 171.9000 181.5000 176.7000 164.9000 147.5000 120.3000 154.2000 144.2000 108.9000 89.7000 54.6000 0.7000 41.5000 9.0000 0.0000 0.0000 0.0000 4.3000 4.9000 0.0000 0.0000 0.0000 0.0000 0.0000 0.0000 0.0000 0.0000 0.0000 0.0000 0.0000 0.0000 7.2000 0.0000 0.0000 0.0000 0.0000 0.2000 45.7000 72.6000 20.6000 229.1000 207.8000 61.5000 2.3000 0.0000 0.0000 0.0000 0.0000 0.0000 0.0000 0.0000 0.0000 0.0000 0.0000 0.0000 0.0000 0.0000 0.0000 0.0000 0.0000 0.0000 0.0000 0.0000 0.0000 0.0000 0.0000 0.0000 17.3000 42.2000 10.1000 0.0000 0.0000 0.0000 0.0000 0.0000 0.0000 0.0000 0.0000 0.2000 65.1000 303.7000 547.2000 719.5000 891.4000 1017.1000 1114.9000 1245.3000 1306.4000 1163.4000 852.2000 582.6000 494.1000 492.0000 619.1000 579.7000 548.5000 452.9000 410.8000 420.8000 466.9000 587.6000 634.8000 641.1000 576.1000 497.5000 445.1000 448.9000 458.9000 493.7000 638.6000 593.6000 604.8000 722.6000 703.3000 651.9000 743.9000 758.6000 743.0000 843.8000 932.0000 954.3000 996.1000 947.6000 856.9000 984.2000 924.0000 1007.9000 1134.1000 928.5000 868.3000 927.3000 839.9000 683.5000 563.0000 571.0000 619.1000 751.2000 785.7000 697.0000 573.3000 474.8000 375.0000 401.6000 332.8000 334.1000 339.6000 329.0000 324.0000 266.8000 250.3000 249.3000 260.6000 262.5000 261.1000 366.8000 345.5000 276.6000 365.7000 413.9000 419.0000 485.3000 403.6000 492.4000 629.9000 651.8000 685.5000 641.0000 590.8000 421.7000 360.5000 341.0000 335.1000 325.8000 331.1000 300.6000 323.0000 329.1000 295.1000 237.4000 323.8000 333.0000 345.5000 361.3000 395.5000 404.1000 374.5000 321.9000 358.1000 384.8000 389.3000 390.1000 395.5000 390.6000 334.9000 304.7000 330.4000 332.4000 429.5000 465.2000 419.9000 344.2000 391.7000 470.6000 487.9000 453.5000 404.8000 427.7000 428.3000 428.5000 433.2000 468.6000 378.2000 262.0000 255.8000 322.5000 230.5000 229.0000 145.9000 200.7000 301.2000 295.3000 286.6000 273.9000 316.0000 355.3000 340.4000 390.8000 402.9000 353.3000 386.6000 369.2000 351.3000 322.6000 308.2000 290.4000 281.9000 313.5000 278.9000 290.0000 208.0000 236.0000 308.9000 349.2000 333.6000 268.8000 288.4000 298.7000 328.6000 287.9000 280.2000 321.4000 386.9000 362.3000 326.3000 300.9000 253.3000 244.6000 231.4000 199.6000 174.3000 152.2000 148.1000 151.3000 211.4000 318.0000 383.0000 370.2000 347.1000 315.3000 326.1000 416.4000 452.9000 437.7000 449.8000 380.9000 315.5000 306.6000 301.0000 265.6000 296.9000 315.9000 339.6000 282.3000 272.3000 280.3000 233.8000 210.2000 223.1000 259.5000 291.9000 285.7000 269.0000 234.4000 255.7000 365.0000 402.0000 354.0000 323.2000 240.8000 202.9000 199.0000 227.0000 221.0000 221.5000 209.6000 184.9000 168.2000 169.2000 203.2000 212.0000 204.8000 236.7000 234.0000 250.7000 277.7000 279.8000 293.2000 283.5000 285.2000 250.9000 269.7000 240.3000 217.5000 211.8000 264.7000 264.5000 280.1000 229.4000 214.3000
0.0000 0.0000 0.0000 0.0000 0.0000 0.0000 0.0000 0.0000 0.0000 0.0000 0.0000 0.0000 1.0000 7.7000 24.2000 42.2000 61.5000 94.4000 120.1000 138.9000 152.2000 150.1000 147.8000 145.6000 158.9000 177.5000 160.4000 139.1000 105.4000 153.8000 159.8000 140.5000 79.3000 30.8000 30.5000 0.4000 14.6000 0.0000 0.0000 0.0000 0.0000 0.0000 0.0000 0.0000 0.0000 0.0000 0.0000 0.0000 0.0000 0.0000 0.0000 0.0000 0.0000 0.0000 5.9000 79.7000 25.1000 0.0000 0.0000 0.0000 0.0000 33.0000 213.4000 141.9000 218.1000 231.0000 70.1000 0.2000 0.0000 0.0000 0.0000 0.0000 0.0000 0.0000 0.0000 0.0000 0.0000 0.0000 0.0000 0.0000 0.0000 0.0000 0.0000 0.0000 0.0000 0.0000 0.0000 0.0000 0.0000 0.0000 0.0000 34.2000 158.3000 213.9000 79.4000 0.5000 0.0000 0.0000 0.0000 0.0000 0.0000 0.0000 0.3000 97.1000 261.9000 408.6000 617.4000 839.4000 953.6000 1057.7000 1243.8000 1221.9000 1244.3000 1074.9000 713.2000 509.1000 466.7000 513.1000 474.2000 419.9000 410.2000 444.6000 438.0000 416.2000 536.5000 610.0000 610.4000 585.8000 551.7000 462.6000 445.2000 450.2000 460.3000 487.3000 490.8000 640.1000 713.9000 591.1000 581.9000 642.5000 640.3000 657.0000 727.5000 833.3000 928.4000 909.7000 1051.8000 901.8000 936.4000 979.9000 1056.8000 1107.6000 1059.0000 895.2000 833.3000 838.4000 731.9000 629.3000 552.1000 622.6000 620.4000 682.5000 721.0000 725.5000 641.6000 455.0000 348.8000 324.0000 332.4000 335.2000 331.4000 286.0000 316.9000 280.4000 241.2000 240.4000 255.7000 230.8000 271.1000 318.3000 307.9000 359.2000 389.0000 452.5000 507.6000 527.1000 472.0000 612.4000 730.8000 733.1000 616.3000 533.6000 472.5000 394.7000 337.6000 341.0000 324.7000 305.5000 313.9000 318.2000 331.7000 314.5000 239.1000 311.5000 317.9000 358.2000 345.4000 335.4000 359.4000 341.5000 328.9000 384.3000 426.5000 448.7000 412.2000 381.9000 304.5000 300.2000 401.3000 417.8000 409.0000 434.5000 477.3000 454.9000 416.6000 506.5000 489.9000 461.7000 405.6000 383.2000 437.5000 439.9000 442.6000 406.6000 399.1000 341.0000 299.1000 218.2000 253.9000 244.4000 185.6000 145.6000 223.7000 268.7000 280.4000 274.6000 340.8000 352.9000 330.4000 304.7000 359.1000 407.1000 457.3000 426.8000 362.0000 331.2000 300.5000 275.3000 277.3000 266.4000 280.4000 251.4000 257.0000 243.0000 197.2000 232.4000 280.7000 273.3000 263.9000 275.3000 291.2000 321.3000 334.2000 308.9000 328.0000 373.1000 373.1000 353.9000 358.7000 311.4000 263.8000 213.5000 216.2000 176.4000 156.7000 146.6000 151.2000 177.1000 272.5000 325.8000 356.2000 369.3000 310.1000 290.5000 348.6000 440.3000 356.6000 354.0000 338.0000 264.9000 282.1000 294.7000 308.5000 294.5000 306.5000 320.4000 326.6000 330.3000 315.6000 287.4000 244.2000 239.2000 251.5000 248.2000 231.4000 227.0000 220.6000 250.2000 305.9000 293.9000 218.9000 224.2000 201.2000 221.8000 261.9000 274.3000 263.2000 240.1000 207.6000 198.5000 212.5000 186.3000 189.9000 202.1000 207.8000 217.9000 215.6000 243.8000 251.4000 247.0000 256.1000 263.5000 298.0000 280.6000 285.5000 270.5000 262.7000 239.0000 233.2000 268.9000 270.7000 236.3000 187.5000
0.0000 0.0000 0.0000 0.0000 0.0000 0.0000 0.0000 0.0000 0.0000 0.0000 0.0000 0.0000 0.0000 1.4000 17.1000 42.8000 56.8000 88.7000 99.2000 121.9000 144.0000 148.5000 140.2000 138.6000 148.6000 164.4000 154.7000 131.1000 87.9000 136.3000 149.3000 130.0000 96.3000 43.3000 3.8000 0.0000 0.0000 0.0000 0.0000 0.0000 0.0000 0.0000 0.0000 0.0000 0.0000 0.0000 0.0000 0.0000 0.0000 0.0000 0.0000 0.0000 0.0000 0.0000 31.0000 204.9000 170.2000 4.1000 0.0000 0.0000 0.0000 2.5000 190.9000 252.1000 204.3000 221.0000 62.9000 0.0000 0.0000 0.0000 0.0000 0.0000 0.0000 0.0000 0.0000 0.0000 0.0000 0.0000 0.0000 0.0000 0.0000 0.0000 0.0000 0.0000 0.0000 0.0000 0.0000 0.0000 0.0000 0.0000 0.0000 15.0000 192.2000 262.2000 272.2000 89.3000 2.0000 0.0000 0.0000 0.0000 0.0000 0.0000 4.8000 133.5000 259.6000 427.6000 590.9000 805.7000 924.8000 1064.5000 1232.6000 1245.2000 1282.5000 1265.2000 986.8000 617.1000 478.0000 408.6000 449.4000 422.5000 438.5000 500.8000 470.0000 424.5000 446.7000 504.3000 535.1000 537.2000 471.4000 436.6000 443.1000 466.1000 479.7000 477.3000 477.7000 520.9000 533.5000 564.2000 692.5000 684.5000 777.6000 714.5000 811.0000 836.5000 863.6000 926.7000 1003.7000 1014.1000 885.4000 1039.1000 1102.6000 1146.8000 1170.8000 969.9000 832.8000 823.4000 703.5000 639.9000 620.3000 654.9000 658.7000 631.7000 658.0000 673.7000 702.2000 561.1000 495.5000 379.8000 326.4000 329.1000 329.4000 306.9000 251.9000 281.6000 257.9000 225.7000 219.1000 218.3000 199.3000 213.9000 321.3000 380.5000 399.6000 392.2000 520.4000 527.1000 583.3000 585.0000 679.8000 664.9000 577.8000 541.7000 400.1000 348.7000 343.4000 362.6000 358.7000 384.4000 341.7000 317.5000 320.8000 335.9000 269.5000 266.2000 315.5000 353.3000 345.3000 333.7000 359.0000 384.8000 387.3000 478.3000 527.3000 449.7000 357.1000 340.5000 315.4000 289.7000 407.6000 458.4000 483.6000 483.8000 515.5000 561.0000 554.1000 548.3000 437.3000 407.1000 390.8000 373.4000 380.5000 401.9000 347.7000 340.8000 412.5000 435.3000 362.3000 261.7000 179.3000 184.1000 168.7000 149.3000 197.1000 221.5000 309.9000 406.9000 339.0000 311.5000 281.6000 320.9000 373.9000 440.8000 480.6000 393.7000 390.5000 395.3000 332.7000 368.7000 319.1000 301.7000 276.3000 252.9000 223.4000 243.3000 235.7000 217.5000 258.5000 278.4000 317.6000 294.4000 301.0000 320.5000 350.0000 336.5000 357.3000 355.4000 328.8000 291.2000 305.2000 365.7000 305.4000 233.4000 182.8000 166.2000 160.2000 152.5000 154.8000 156.3000 211.0000 261.4000 332.8000 388.8000 315.8000 264.8000 327.3000 398.3000 344.8000 287.3000 278.2000 239.0000 284.2000 270.7000 282.7000 278.8000 301.4000 289.9000 324.8000 345.7000 319.7000 308.1000 305.4000 313.6000 273.0000 231.3000 263.3000 307.3000 302.7000 247.1000 214.4000 224.6000 234.0000 240.4000 290.9000 305.0000 279.0000 305.5000 292.0000 258.0000 228.9000 211.2000 277.0000 254.2000 201.8000 196.9000 218.6000 207.1000 215.0000 226.5000 221.1000 240.6000 249.3000 261.1000 276.3000 271.6000 268.8000 262.6000 283.2000 261.6000 220.2000 198.7000 215.7000 206.6000 216.7000
0.0000 0.0000 0.0000 0.0000 0.0000 0.0000 0.0000 0.0000 0.0000 0.0000 0.0000 0.0000 0.0000 0.5000 12.9000 36.9000 43.8000 54.6000 78.8000 95.9000 119.5000 139.3000 134.9000 128.6000 136.4000 155.5000 147.7000 140.2000 94.9000 122.7000 144.5000 112.1000 63.5000 51.1000 3.3000 0.0000 0.0000 0.0000 0.0000 0.0000 0.0000 0.0000 0.0000 0.0000 0.0000 0.0000 0.0000 0.0000 0.0000 0.0000 0.0000 0.0000 0.0000 0.0000 14.1000 245.0000 255.5000 78.7000 0.0000 0.0000 0.0000 0.0000 72.3000 262.0000 263.1000 225.1000 85.6000 0.1000 0.0000 0.0000 0.0000 0.0000 0.0000 0.0000 0.0000 0.0000 0.0000 0.0000 0.0000 0.0000 0.0000 0.0000 0.0000 0.0000 0.0000 0.0000 0.0000 0.0000 0.0000 0.0000 0.0000 0.0000 7.7000 69.0000 213.4000 207.1000 17.4000 0.0000 0.0000 0.0000 0.0000 0.0000 24.5000 213.5000 314.8000 470.9000 597.1000 806.0000 956.2000 1149.0000 1258.9000 1287.3000 1288.4000 1293.2000 1143.8000 752.1000 577.5000 484.9000 504.9000 513.6000 509.5000 519.4000 480.6000 499.6000 476.7000 471.3000 493.8000 545.1000 492.3000 438.1000 441.6000 466.7000 621.3000 669.8000 542.6000 493.0000 512.6000 610.2000 715.0000 762.6000 847.1000 873.8000 905.5000 900.5000 838.7000 852.2000 904.7000 890.2000 890.7000 992.1000 976.5000 1064.6000 1080.4000 862.4000 792.5000 749.8000 739.5000 661.4000 699.7000 657.0000 707.0000 665.1000 682.5000 646.1000 642.0000 628.2000 514.9000 437.6000 379.3000 325.1000 327.2000 327.1000 297.9000 224.9000 220.6000 218.7000 227.4000 194.6000 209.8000 203.4000 231.2000 320.0000 375.1000 380.2000 394.0000 468.8000 551.6000 632.0000 605.0000 513.9000 511.3000 532.0000 457.1000 402.2000 361.5000 432.1000 424.9000 448.3000 428.3000 352.6000 322.5000 328.4000 308.8000 274.5000 265.3000 291.7000 347.2000 355.4000 361.9000 381.0000 429.7000 519.4000 579.6000 458.2000 338.0000 298.3000 302.2000 383.2000 418.7000 458.8000 496.5000 502.8000 533.0000 554.7000 498.6000 459.3000 430.4000 399.2000 417.7000 387.2000 343.9000 341.2000 348.5000 345.3000 331.6000 312.2000 323.8000 243.8000 202.4000 170.2000 150.1000 149.6000 201.5000 261.3000 324.6000 353.5000 286.6000 288.2000 326.5000 405.2000 433.2000 508.1000 508.4000 449.4000 488.8000 397.1000 380.8000 380.4000 326.3000 336.4000 275.9000 255.2000 232.5000 220.0000 230.5000 220.2000 250.9000 292.1000 318.2000 345.2000 362.1000 350.1000 360.0000 398.5000 395.0000 344.0000 296.1000 364.4000 354.7000 282.9000 282.4000 305.3000 206.9000 163.4000 158.7000 166.6000 192.9000 173.6000 160.9000 221.9000 329.2000 390.8000 332.0000 258.7000 247.7000 314.0000 302.3000 288.0000 252.5000 256.3000 257.6000 257.6000 260.4000 265.5000 277.2000 292.0000 331.7000 341.1000 351.0000 327.9000 303.3000 314.3000 285.9000 244.9000 290.5000 307.8000 285.6000 344.0000 320.5000 279.5000 286.4000 322.6000 313.3000 357.6000 353.1000 340.7000 338.5000 283.6000 239.4000 220.4000 294.0000 288.6000 222.3000 241.5000 262.1000 230.0000 204.6000 220.2000 249.8000 267.0000 274.8000 270.6000 235.8000 234.7000 238.8000 215.7000 259.2000 249.7000 219.5000 202.2000 182.3000 152.7000 142.2000
0.0000 0.0000 0.0000 0.0000 0.0000 0.0000 0.0000 0.0000 0.1000 1.1000 1.3000 0.0000 0.0000 0.0000 1.5000 15.2000 27.0000 35.3000 50.1000 69.2000 96.0000 120.8000 123.8000 121.4000 132.0000 141.2000 143.5000 137.9000 84.1000 105.8000 127.3000 119.0000 42.6000 17.7000 0.0000 0.0000 0.0000 0.0000 0.0000 0.0000 0.0000 0.0000 0.0000 0.0000 0.0000 0.0000 0.0000 0.0000 0.0000 0.0000 0.0000 0.0000 0.0000 0.0000 5.6000 191.3000 285.5000 187.4000 45.0000 0.2000 0.1000 0.0000 48.9000 233.9000 259.5000 222.0000 74.4000 0.6000 0.0000 0.0000 0.0000 0.0000 0.0000 0.0000 0.0000 0.0000 0.0000 0.0000 0.0000 0.0000 0.0000 0.0000 0.0000 0.0000 0.0000 0.0000 0.0000 0.0000 0.0000 0.0000 0.0000 0.0000 0.0000 0.0000 5.0000 79.9000 69.2000 0.0000 0.0000 0.0000 0.0000 1.4000 80.0000 234.7000 386.2000 585.2000 673.9000 768.8000 966.2000 1155.4000 1209.2000 1186.1000 1217.6000 1248.6000 1233.4000 1030.1000 735.6000 533.2000 496.1000 539.3000 512.6000 491.6000 482.0000 458.4000 461.1000 477.7000 461.7000 465.1000 441.5000 439.7000 442.6000 444.1000 476.6000 564.0000 596.5000 500.6000 487.4000 499.9000 536.3000 658.3000 848.7000 824.4000 832.7000 848.5000 805.0000 761.7000 801.8000 787.3000 863.4000 879.7000 857.4000 956.2000 921.1000 880.7000 931.2000 786.7000 693.7000 659.2000 697.0000 657.1000 709.3000 717.9000 725.2000 670.1000 658.4000 681.4000 706.9000 637.1000 588.9000 354.4000 325.8000 327.5000 325.5000 234.7000 203.8000 208.5000 213.4000 196.3000 204.2000 203.5000 212.4000 229.5000 320.6000 371.5000 376.1000 445.5000 468.6000 453.2000 533.7000 602.4000 633.4000 665.7000 609.5000 560.0000 545.4000 614.8000 599.5000 546.3000 595.5000 499.5000 344.6000 325.3000 335.2000 339.9000 311.0000 319.5000 349.4000 369.3000 369.0000 409.5000 506.5000 590.6000 603.5000 522.8000 401.8000 370.4000 356.5000 334.5000 462.7000 505.8000 547.1000 545.2000 546.7000 523.9000 489.4000 465.9000 443.5000 399.1000 396.8000 407.4000 393.7000 305.9000 263.2000 280.9000 287.5000 282.1000 232.3000 226.4000 203.3000 180.3000 152.6000 152.0000 188.0000 272.5000 259.7000 244.0000 285.5000 312.3000 373.3000 426.2000 426.9000 419.8000 478.7000 530.1000 438.2000 382.0000 485.6000 402.1000 379.9000 338.7000 263.5000 263.1000 235.1000 268.1000 293.1000 272.9000 261.8000 264.2000 308.5000 371.4000 387.6000 392.2000 378.9000 391.4000 397.6000 376.2000 313.4000 370.9000 394.1000 359.3000 341.8000 241.3000 198.0000 187.9000 248.0000 254.1000 248.3000 199.8000 164.6000 168.1000 216.8000 309.1000 351.7000 262.9000 231.8000 217.8000 229.6000 245.2000 251.2000 254.4000 323.3000 320.0000 282.1000 272.7000 266.7000 308.3000 319.5000 346.2000 382.9000 361.9000 327.1000 310.7000 271.3000 283.9000 354.5000 335.7000 330.7000 358.4000 323.6000 307.6000 376.8000 325.0000 367.6000 394.1000 411.7000 369.5000 337.6000 279.4000 267.5000 209.0000 270.1000 283.6000 227.5000 245.0000 283.1000 267.6000 252.4000 209.2000 230.2000 256.5000 267.2000 270.4000 215.5000 220.7000 213.1000 212.3000 239.1000 223.8000 223.6000 213.9000 157.2000 147.0000 173.8000
0.0000 0.0000 0.0000 0.0000 0.0000 0.0000 0.0000 0.0000 0.0000 0.4000 3.1000 0.2000 0.0000 0.0000 0.3000 2.5000 6.7000 14.3000 31.5000 55.1000 73.4000 94.0000 108.3000 109.0000 121.7000 120.3000 129.9000 129.1000 78.1000 97.3000 110.3000 74.2000 18.5000 1.1000 0.0000 0.0000 0.0000 0.0000 0.0000 0.0000 0.0000 0.0000 0.0000 0.0000 0.0000 0.0000 0.0000 0.0000 0.0000 0.0000 0.0000 0.0000 0.0000 0.0000 5.0000 45.5000 305.5000 286.8000 183.4000 63.3000 92.5000 48.7000 153.2000 245.1000 215.2000 192.4000 61.2000 0.0000 0.0000 0.0000 0.0000 0.0000 0.0000 0.0000 0.0000 0.0000 0.0000 0.0000 0.0000 0.0000 0.0000 0.0000 0.0000 0.0000 0.0000 0.0000 0.0000 0.0000 0.0000 0.1000 1.2000 0.0000 0.0000 0.0000 0.0000 0.0000 0.6000 0.2000 0.0000 0.0000 0.0000 25.4000 141.1000 315.3000 460.1000 733.9000 791.2000 794.0000 880.4000 1069.6000 1168.7000 1096.5000 1160.2000 1274.8000 1374.0000 1337.1000 948.9000 608.4000 492.7000 472.3000 445.0000 441.1000 421.0000 428.4000 481.0000 445.2000 433.9000 437.1000 439.6000 459.2000 461.7000 445.9000 452.2000 456.5000 466.2000 475.5000 484.7000 496.5000 506.3000 635.3000 725.7000 737.3000 717.7000 730.2000 758.1000 756.6000 748.9000 792.7000 767.9000 755.8000 810.4000 810.5000 835.8000 893.4000 899.3000 785.4000 726.9000 672.7000 733.0000 717.6000 708.8000 758.2000 709.8000 690.7000 681.8000 693.8000 819.0000 884.0000 857.3000 567.7000 340.1000 326.4000 328.4000 267.8000 217.6000 203.3000 199.0000 199.2000 203.5000 204.6000 206.0000 226.2000 308.7000 378.5000 374.2000 393.5000 407.2000 531.2000 653.6000 706.1000 752.5000 777.9000 745.2000 696.1000 721.9000 789.0000 709.4000 699.7000 782.5000 716.8000 434.1000 349.6000 368.7000 368.7000 359.4000 342.4000 358.0000 355.1000 358.9000 383.3000 490.3000 523.7000 530.1000 527.0000 475.3000 477.6000 397.8000 321.7000 404.1000 502.3000 525.7000 569.7000 580.3000 534.2000 470.6000 445.8000 425.4000 400.0000 400.5000 370.7000 386.2000 354.2000 364.3000 282.9000 231.1000 208.6000 200.2000 192.6000 205.2000 178.4000 152.2000 153.2000 154.7000 209.5000 233.3000 267.0000 279.9000 321.8000 389.0000 429.1000 368.1000 460.1000 559.8000 548.7000 461.3000 398.3000 463.7000 485.5000 370.8000 303.4000 290.5000 337.8000 284.2000 255.7000 343.7000 327.3000 306.5000 309.6000 330.3000 360.8000 370.5000 380.7000 371.7000 350.5000 348.1000 342.9000 332.2000 386.9000 426.0000 412.4000 359.1000 227.6000 268.1000 338.6000 411.6000 382.1000 377.2000 312.5000 249.4000 215.5000 215.0000 218.6000 309.3000 262.3000 201.2000 247.8000 281.1000 255.3000 267.8000 302.0000 359.7000 326.1000 349.4000 339.6000 293.6000 274.4000 296.0000 334.5000 365.0000 363.4000 312.6000 287.1000 254.5000 272.0000 313.1000 352.8000 371.8000 401.7000 342.1000 367.8000 391.3000 401.3000 404.2000 427.5000 439.8000 399.4000 344.3000 296.7000 282.4000 245.8000 219.1000 265.9000 279.2000 328.3000 317.0000 280.7000 255.3000 218.2000 235.2000 253.2000 270.8000 266.5000 217.9000 197.4000 201.6000 194.1000 209.4000 217.9000 187.7000 203.4000 157.2000 206.7000 247.5000
0.0000 0.0000 0.0000 0.0000 0.0000 0.0000 0.0000 0.0000 0.0000 0.0000 0.6000 9.0000 5.9000 1.3000 0.0000 2.0000 2.8000 8.8000 24.6000 37.3000 50.0000 79.6000 88.0000 91.7000 103.9000 101.8000 106.3000 118.4000 105.6000 50.8000 135.1000 105.0000 39.1000 0.0000 0.0000 0.0000 0.0000 0.0000 0.0000 0.0000 0.0000 0.0000 0.0000 0.0000 0.0000 0.0000 0.0000 0.0000 0.0000 0.0000 0.0000 0.0000 0.0000 0.0000 0.0000 5.5000 232.3000 345.6000 251.8000 149.3000 217.9000 304.8000 327.5000 285.2000 220.8000 161.3000 31.6000 0.0000 0.0000 0.0000 0.0000 0.0000 0.0000 0.0000 0.0000 0.0000 0.0000 0.0000 0.0000 0.0000 0.0000 0.0000 0.0000 0.0000 0.0000 0.0000 0.0000 0.0000 0.0000 0.4000 29.6000 29.8000 0.0000 0.0000 0.0000 0.0000 0.0000 0.0000 0.0000 0.0000 0.0000 24.6000 192.5000 395.9000 574.5000 842.9000 936.9000 871.1000 895.1000 1035.9000 1039.9000 1085.7000 1174.0000 1231.0000 1263.6000 1285.4000 1204.9000 798.7000 533.6000 493.1000 507.6000 529.6000 499.1000 560.0000 606.8000 638.7000 598.2000 552.3000 487.2000 473.1000 436.5000 445.8000 442.9000 450.7000 460.0000 462.3000 480.6000 589.3000 651.3000 572.2000 605.5000 675.9000 699.4000 791.8000 854.3000 764.1000 756.0000 745.2000 743.7000 782.8000 801.3000 765.1000 797.2000 840.2000 766.4000 745.1000 752.6000 707.2000 715.6000 751.1000 763.2000 746.0000 712.6000 730.9000 803.4000 767.1000 843.3000 1039.8000 1062.2000 921.1000 513.2000 334.3000 328.4000 300.4000 209.2000 208.0000 202.7000 203.3000 207.4000 209.3000 210.0000 246.5000 275.7000 372.3000 385.3000 390.1000 496.9000 707.6000 844.4000 844.2000 896.3000 870.1000 844.2000 843.9000 887.0000 948.4000 835.9000 788.0000 837.7000 738.3000 464.8000 345.4000 375.2000 395.1000 395.8000 365.3000 372.9000 347.3000 355.8000 400.8000 464.2000 469.5000 500.7000 485.6000 516.6000 519.3000 437.4000 348.1000 341.6000 484.0000 543.1000 526.3000 514.0000 520.1000 499.5000 442.7000 440.5000 433.5000 371.8000 382.6000 468.9000 499.2000 437.1000 421.4000 327.3000 262.4000 339.3000 306.9000 211.0000 196.2000 166.6000 156.5000 154.7000 161.2000 186.5000 222.0000 294.9000 320.1000 348.0000 343.8000 405.2000 469.9000 535.9000 550.3000 530.9000 476.6000 464.5000 546.5000 457.1000 382.3000 310.4000 338.7000 350.1000 304.0000 281.1000 330.9000 352.4000 323.8000 381.2000 380.3000 382.4000 379.1000 373.1000 368.0000 358.6000 346.7000 357.2000 366.9000 433.8000 428.3000 358.9000 231.9000 386.4000 439.8000 473.9000 505.2000 507.4000 472.1000 360.6000 348.0000 305.1000 307.9000 247.9000 214.9000 190.4000 214.5000 261.6000 304.9000 309.3000 336.4000 403.7000 390.2000 369.6000 330.0000 300.8000 316.0000 303.3000 323.3000 340.7000 303.1000 284.2000 259.9000 281.4000 337.8000 305.3000 297.3000 319.3000 355.2000 406.2000 410.3000 395.4000 463.5000 457.2000 415.8000 402.6000 410.4000 326.5000 307.9000 323.6000 273.5000 204.0000 240.8000 326.9000 353.8000 319.1000 278.8000 237.9000 232.1000 261.7000 249.6000 273.9000 247.9000 222.3000 204.3000 180.7000 184.7000 173.1000 165.9000 153.8000 156.4000 178.9000 262.2000 293.5000
0.0000 0.0000 0.0000 0.0000 0.0000 0.0000 0.0000 0.0000 0.0000 0.5000 0.5000 6.2000 8.0000 1.7000 0.0000 0.4000 4.5000 8.9000 18.5000 34.1000 46.5000 62.8000 73.5000 68.1000 70.1000 73.4000 93.3000 113.8000 94.6000 34.2000 92.0000 36.6000 3.0000 0.0000 0.0000 0.0000 0.0000 0.0000 0.0000 0.0000 0.0000 0.0000 0.0000 0.0000 0.0000 0.0000 0.0000 0.0000 0.0000 0.0000 0.0000 0.0000 0.0000 0.0000 0.0000 0.1000 104.7000 341.8000 302.7000 180.3000 143.2000 310.5000 376.3000 313.1000 229.3000 161.9000 21.0000 0.0000 0.0000 0.0000 0.0000 0.0000 0.0000 0.0000 0.0000 0.0000 0.0000 0.0000 0.0000 0.0000 0.0000 0.0000 0.0000 0.0000 0.0000 0.0000 0.0000 0.0000 0.0000 7.6000 104.2000 154.8000 18.1000 0.0000 0.0000 0.0000 0.0000 0.0000 0.0000 0.0000 0.0000 13.3000 204.0000 451.4000 722.4000 872.1000 992.4000 1048.5000 959.6000 1048.9000 1036.9000 1043.7000 1143.2000 1169.2000 1216.0000 1226.9000 1233.9000 1079.4000 702.1000 574.9000 532.2000 478.0000 473.9000 513.8000 543.0000 570.7000 639.6000 622.0000 568.7000 472.0000 460.1000 462.8000 451.2000 444.6000 448.7000 453.4000 475.0000 632.7000 789.3000 756.8000 679.3000 831.5000 899.8000 864.0000 955.4000 816.7000 772.9000 742.9000 734.2000 833.5000 854.1000 871.4000 830.2000 789.2000 785.0000 822.7000 891.3000 858.7000 780.6000 740.5000 802.2000 772.5000 719.1000 734.1000 752.2000 778.7000 959.0000 1114.1000 1180.8000 1073.1000 895.0000 572.3000 362.9000 326.9000 264.3000 205.1000 201.9000 212.9000 217.5000 213.6000 215.4000 221.1000 266.8000 307.8000 392.3000 392.9000 473.1000 653.1000 811.2000 944.0000 1008.7000 951.6000 894.3000 872.8000 869.4000 942.9000 897.8000 864.8000 825.1000 736.3000 487.1000 359.1000 371.7000 380.6000 392.2000 363.6000 404.4000 369.9000 354.5000 433.7000 498.8000 494.9000 490.1000 474.7000 500.5000 501.4000 491.6000 494.0000 409.8000 391.9000 440.4000 476.6000 525.7000 513.5000 511.5000 478.8000 475.6000 439.0000 470.3000 520.1000 559.5000 559.2000 534.4000 504.6000 443.0000 359.5000 360.1000 375.2000 323.1000 182.2000 164.2000 160.2000 158.3000 162.7000 182.5000 204.9000 251.7000 300.5000 366.8000 331.5000 402.5000 445.4000 442.9000 501.1000 584.0000 580.2000 505.4000 520.4000 485.4000 355.6000 340.5000 434.5000 419.5000 340.9000 318.0000 349.1000 341.4000 326.4000 359.5000 407.2000 404.4000 418.4000 391.3000 359.8000 377.3000 431.7000 413.4000 400.0000 487.1000 438.6000 364.3000 202.7000 406.4000 562.7000 622.7000 642.5000 605.4000 573.4000 519.2000 439.8000 415.0000 363.9000 262.6000 274.1000 221.8000 222.4000 254.2000 326.2000 397.8000 387.7000 457.3000 413.2000 383.4000 356.6000 388.0000 386.2000 347.4000 353.4000 317.8000 310.5000 346.1000 280.5000 299.6000 404.0000 400.6000 381.5000 384.3000 402.8000 413.4000 446.3000 446.7000 436.0000 392.9000 386.5000 358.0000 379.8000 329.8000 326.3000 289.4000 257.0000 207.6000 251.0000 293.8000 322.6000 304.0000 278.0000 249.2000 237.5000 272.2000 281.0000 268.0000 240.4000 198.3000 196.0000 166.7000 160.7000 155.9000 153.4000 154.1000 174.9000 197.8000 264.7000 301.7000
0.0000 0.0000 0.0000 0.0000 0.0000 0.0000 0.0000 0.0000 0.0000 0.0000 0.2000 6.5000 0.5000 0.0000 0.2000 2.6000 20.8000 13.0000 21.5000 34.8000 52.5000 57.6000 46.1000 42.9000 46.7000 60.0000 78.3000 89.9000 63.4000 27.9000 6.2000 1.7000 0.0000 0.0000 0.0000 0.0000 0.0000 0.0000 0.0000 0.0000 0.0000 0.0000 0.0000 0.0000 0.0000 0.0000 0.0000 0.0000 0.0000 0.0000 0.0000 0.0000 0.0000 0.0000 0.0000 0.0000 71.9000 356.2000 336.8000 201.5000 37.6000 157.3000 334.1000 304.6000 228.6000 142.4000 20.4000 0.0000 0.0000 0.0000 0.0000 0.0000 0.0000 0.0000 0.0000 0.0000 0.0000 0.0000 0.0000 0.0000 0.0000 0.0000 0.0000 0.0000 0.0000 0.0000 0.0000 0.0000 0.0000 0.0000 44.9000 71.1000 26.6000 0.0000 0.0000 0.0000 0.0000 0.0000 0.0000 0.0000 0.0000 46.7000 209.0000 499.2000 784.4000 923.3000 1044.4000 1126.2000 1133.2000 1031.9000 1005.6000 952.1000 979.1000 1010.0000 1113.6000 1145.2000 1150.7000 1144.5000 970.7000 661.2000 703.6000 709.9000 582.2000 485.3000 507.2000 523.8000 535.7000 574.6000 556.9000 545.3000 469.0000 440.3000 438.7000 438.2000 443.0000 443.6000 439.2000 505.6000 682.9000 863.3000 861.1000 889.5000 1000.4000 1036.1000 988.8000 990.7000 885.0000 781.8000 733.1000 787.8000 900.0000 937.5000 951.7000 788.2000 792.0000 842.0000 958.8000 970.4000 821.0000 756.0000 826.7000 832.2000 774.9000 754.0000 723.6000 772.0000 968.7000 1198.8000 1258.2000 1194.1000 1074.1000 940.2000 514.5000 343.5000 319.0000 233.4000 212.3000 225.3000 232.2000 289.7000 239.5000 210.4000 214.8000 218.0000 324.7000 406.8000 471.5000 651.7000 773.9000 881.1000 976.1000 1029.2000 1061.0000 1058.6000 1006.1000 1059.1000 1005.3000 1015.9000 880.5000 731.0000 556.8000 471.8000 409.7000 427.4000 409.3000 401.3000 450.9000 538.6000 521.3000 437.3000 495.2000 505.3000 476.8000 453.4000 452.0000 482.9000 451.3000 466.3000 502.6000 460.0000 455.3000 460.6000 485.2000 487.4000 491.8000 485.3000 518.2000 500.4000 533.1000 533.3000 554.0000 551.4000 554.1000 500.0000 466.8000 431.5000 400.2000 357.4000 370.6000 349.4000 270.0000 204.6000 159.8000 160.3000 172.3000 225.9000 255.6000 271.1000 328.4000 331.0000 382.5000 393.2000 395.4000 432.8000 521.2000 543.7000 542.1000 462.9000 458.9000 371.3000 337.2000 435.4000 448.7000 444.7000 389.6000 424.1000 401.9000 351.4000 387.8000 376.6000 422.1000 431.1000 411.5000 415.1000 425.0000 422.7000 408.5000 413.0000 503.5000 467.0000 416.4000 286.9000 280.9000 453.2000 549.4000 632.9000 633.4000 631.4000 654.3000 560.2000 504.2000 491.7000 416.3000 362.3000 219.5000 231.6000 257.6000 304.4000 367.4000 432.8000 484.1000 431.2000 436.0000 432.0000 445.0000 409.4000 345.8000 311.8000 335.1000 378.4000 326.9000 266.4000 280.5000 354.3000 378.3000 419.7000 422.0000 421.8000 387.4000 417.8000 412.0000 409.0000 356.1000 338.3000 311.8000 342.5000 311.5000 346.1000 353.7000 307.5000 223.6000 245.0000 333.0000 351.9000 306.0000 266.8000 264.6000 281.2000 281.4000 284.9000 241.8000 213.0000 185.2000 166.7000 162.6000 159.7000 158.0000 167.5000 184.3000 211.4000 193.3000 252.4000 312.9000
0.0000 0.0000 0.0000 0.0000 0.0000 0.0000 0.0000 0.0000 0.0000 0.0000 0.2000 0.4000 0.0000 0.0000 1.1000 12.4000 27.5000 16.2000 9.9000 13.2000 23.0000 53.2000 54.3000 41.6000 42.7000 60.2000 73.5000 75.2000 66.8000 51.1000 20.7000 0.0000 0.0000 0.0000 0.0000 0.0000 0.0000 0.0000 0.0000 0.0000 0.0000 0.0000 0.0000 0.0000 0.0000 0.0000 0.0000 0.0000 0.0000 0.0000 0.0000 0.0000 0.0000 0.0000 0.0000 0.0000 13.9000 269.1000 388.8000 246.5000 59.1000 26.1000 232.9000 290.4000 234.0000 149.9000 46.6000 0.0000 0.0000 0.0000 0.0000 0.0000 0.0000 0.0000 0.0000 0.0000 0.0000 0.0000 0.0000 0.0000 0.0000 0.0000 0.0000 0.0000 0.0000 0.0000 0.0000 0.0000 0.6000 0.8000 0.6000 0.0000 0.0000 0.0000 3.7000 33.5000 69.5000 40.2000 0.0000 0.0000 0.1000 103.0000 315.4000 532.4000 826.7000 1013.5000 1225.5000 1276.1000 1397.2000 1330.5000 1041.9000 899.8000 923.6000 862.9000 906.2000 996.0000 1052.2000 1044.3000 956.1000 756.9000 608.7000 653.2000 693.1000 683.8000 629.7000 544.6000 540.4000 553.4000 544.5000 566.9000 555.3000 474.6000 482.6000 437.6000 440.2000 432.8000 434.8000 443.3000 516.1000 720.1000 889.9000 912.6000 966.3000 990.1000 1012.8000 999.2000 1034.4000 881.8000 744.4000 780.2000 911.2000 984.1000 1038.9000 845.9000 772.4000 817.5000 864.8000 895.9000 873.8000 855.0000 859.9000 851.9000 860.2000 785.4000 758.2000 789.8000 919.0000 1132.2000 1286.7000 1423.0000 1194.1000 1083.0000 870.4000 515.6000 355.4000 341.4000 301.7000 243.5000 264.2000 365.8000 387.9000 247.7000 214.6000 211.8000 223.6000 397.8000 488.6000 506.5000 626.0000 787.4000 902.8000 975.6000 1047.7000 1049.7000 1028.6000 1107.3000 1051.7000 996.0000 922.6000 736.6000 689.2000 565.9000 536.7000 563.4000 503.8000 537.5000 485.5000 644.3000 762.2000 645.8000 535.2000 534.8000 543.2000 557.1000 529.7000 525.1000 482.3000 429.2000 464.5000 465.2000 499.9000 474.4000 532.6000 521.5000 454.2000 404.7000 429.9000 567.1000 584.4000 542.3000 589.5000 619.9000 654.7000 540.1000 483.0000 451.6000 421.7000 396.5000 344.2000 365.7000 324.5000 281.4000 188.4000 160.6000 164.8000 208.8000 247.0000 226.3000 275.6000 346.0000 466.5000 404.5000 365.9000 425.5000 467.3000 483.8000 488.0000 497.5000 422.5000 432.7000 361.4000 329.6000 396.0000 476.2000 505.2000 552.2000 538.4000 470.0000 514.6000 402.7000 388.2000 431.3000 455.3000 463.9000 442.6000 428.1000 443.9000 451.4000 509.7000 491.8000 383.9000 363.5000 216.1000 274.9000 363.4000 413.2000 485.2000 494.3000 584.5000 587.1000 591.9000 607.4000 544.3000 440.0000 308.8000 240.2000 289.2000 352.5000 353.2000 410.2000 492.8000 497.9000 486.1000 478.7000 427.1000 372.3000 373.4000 387.6000 368.5000 325.9000 286.9000 294.6000 269.1000 274.6000 305.7000 356.1000 393.6000 391.9000 347.5000 369.0000 407.0000 439.8000 393.1000 346.6000 314.9000 286.4000 280.6000 303.9000 280.9000 283.5000 250.5000 245.0000 331.2000 339.6000 310.7000 280.4000 291.7000 330.4000 325.7000 268.0000 237.6000 192.7000 170.2000 165.1000 165.0000 172.2000 173.6000 199.5000 223.4000 219.1000 184.1000 259.7000 345.3000
0.0000 0.0000 0.0000 0.0000 0.0000 0.0000 0.0000 0.0000 0.0000 0.0000 0.0000 0.0000 0.0000 0.0000 0.0000 0.5000 9.2000 4.3000 1.4000 16.7000 17.9000 41.7000 50.2000 43.9000 49.9000 53.1000 59.3000 47.4000 51.8000 41.0000 6.7000 0.0000 0.0000 0.0000 0.0000 0.0000 0.0000 0.0000 0.0000 0.0000 0.0000 0.0000 0.0000 0.0000 0.0000 0.0000 0.0000 0.0000 0.0000 0.0000 0.0000 0.0000 0.0000 0.0000 0.0000 0.0000 0.0000 121.8000 361.0000 293.2000 97.3000 10.0000 100.1000 258.4000 217.7000 163.3000 87.9000 0.0000 0.0000 0.0000 0.0000 0.0000 0.0000 0.0000 0.0000 0.0000 0.0000 0.0000 0.0000 0.0000 0.0000 0.0000 0.0000 0.0000 0.3000 7.2000 8.3000 1.3000 12.8000 22.2000 8.3000 1.5000 0.0000 0.0000 0.7000 19.1000 40.6000 15.5000 0.0000 0.0000 0.1000 95.8000 287.6000 526.6000 883.1000 1051.9000 1256.1000 1292.8000 1405.8000 1533.6000 1353.3000 1013.5000 865.2000 808.1000 790.6000 813.8000 868.2000 914.8000 852.3000 751.7000 619.0000 536.9000 519.7000 592.1000 616.4000 541.7000 552.9000 569.7000 524.1000 531.5000 488.6000 543.1000 694.8000 611.5000 448.6000 434.1000 433.6000 433.9000 442.7000 555.7000 803.5000 935.3000 917.4000 973.6000 921.1000 916.1000 1002.6000 949.4000 792.2000 801.9000 901.4000 943.2000 1064.1000 987.2000 768.0000 753.4000 752.3000 865.4000 858.9000 877.0000 877.1000 809.4000 802.7000 783.2000 779.1000 867.6000 907.3000 1021.3000 1120.2000 1396.1000 1365.8000 1209.6000 1205.1000 797.7000 534.6000 405.2000 365.0000 347.6000 331.3000 353.3000 479.1000 311.2000 284.6000 221.6000 211.6000 245.2000 350.0000 486.9000 561.7000 646.8000 767.5000 854.9000 894.1000 928.2000 964.1000 1014.9000 990.4000 961.6000 877.1000 769.7000 711.2000 589.3000 587.4000 608.1000 567.5000 619.5000 581.3000 624.2000 759.9000 776.0000 637.6000 607.9000 630.1000 713.1000 778.9000 813.4000 722.6000 595.2000 479.4000 498.1000 602.2000 516.8000 525.0000 555.5000 399.5000 382.5000 392.4000 571.1000 648.9000 540.5000 544.3000 654.9000 742.2000 600.2000 499.3000 472.3000 450.4000 418.0000 361.3000 290.5000 304.1000 284.6000 222.1000 169.3000 179.8000 201.6000 232.8000 199.3000 232.8000 353.7000 475.7000 516.3000 455.6000 416.1000 550.7000 468.7000 445.2000 463.0000 409.6000 438.4000 358.8000 374.2000 465.0000 501.0000 517.8000 543.9000 601.5000 601.5000 576.0000 536.8000 556.1000 447.0000 440.7000 445.8000 460.5000 447.7000 462.0000 468.5000 484.2000 488.6000 492.6000 450.0000 368.0000 256.6000 223.3000 229.2000 328.8000 382.9000 423.7000 482.3000 485.5000 545.3000 651.4000 620.5000 452.5000 275.3000 240.6000 280.4000 350.8000 370.7000 474.9000 514.0000 456.7000 432.4000 448.6000 542.5000 429.9000 445.9000 451.9000 400.1000 322.6000 316.2000 366.6000 384.5000 294.5000 286.2000 333.4000 348.9000 361.4000 416.1000 417.3000 447.8000 388.5000 348.6000 338.5000 348.1000 317.4000 256.3000 243.3000 235.8000 243.0000 287.5000 299.0000 312.9000 309.9000 314.4000 318.3000 314.3000 336.4000 276.9000 209.4000 175.6000 170.5000 176.4000 184.9000 195.2000 187.5000 220.5000 251.3000 233.0000 191.8000 263.2000 355.5000
0.0000 0.0000 0.0000 0.0000 0.0000 0.0000 0.0000 0.0000 0.0000 0.0000 0.0000 0.0000 0.0000 0.0000 4.0000 16.9000 1.0000 0.6000 4.1000 16.5000 14.4000 21.8000 26.8000 40.6000 41.8000 44.4000 51.4000 43.1000 44.1000 38.8000 8.1000 0.0000 0.0000 0.0000 0.0000 0.0000 0.0000 0.0000 0.0000 0.0000 0.0000 0.0000 0.0000 0.0000 0.0000 0.0000 0.0000 0.0000 0.0000 0.0000 0.0000 0.0000 0.0000 0.0000 0.0000 0.0000 0.0000 69.3000 310.0000 349.9000 173.4000 14.4000 20.1000 197.0000 213.1000 158.1000 115.0000 14.8000 0.0000 0.0000 0.0000 0.0000 0.0000 0.0000 0.0000 0.0000 0.0000 0.0000 0.0000 0.0000 0.0000 0.0000 0.0000 0.0000 0.0000 20.5000 68.6000 51.1000 13.8000 28.3000 28.9000 0.1000 0.0000 0.0000 0.0000 0.1000 3.5000 0.0000 0.0000 0.0000 0.2000 114.1000 279.5000 463.7000 714.4000 1041.7000 1220.4000 1363.6000 1448.5000 1526.6000 1506.6000 1369.5000 1108.3000 953.8000 837.9000 748.9000 716.3000 743.1000 771.7000 851.0000 815.0000 724.1000 664.2000 729.3000 706.8000 687.1000 696.5000 657.6000 640.0000 597.2000 601.7000 662.7000 773.2000 705.8000 531.2000 448.7000 435.8000 435.8000 438.0000 486.7000 686.0000 834.0000 823.9000 906.6000 1034.7000 928.3000 974.5000 934.1000 824.4000 773.6000 846.0000 881.2000 932.0000 953.2000 860.9000 752.3000 748.0000 835.9000 884.0000 879.1000 876.4000 831.1000 729.6000 738.2000 700.7000 799.4000 910.7000 896.6000 973.8000 1186.6000 1395.3000 1247.6000 1172.2000 989.4000 693.2000 602.8000 458.1000 386.4000 376.5000 353.0000 440.6000 315.6000 262.9000 284.9000 267.8000 217.6000 224.0000 369.6000 555.8000 697.4000 792.7000 862.1000 846.4000 887.2000 919.5000 963.1000 989.9000 944.9000 915.1000 870.8000 799.7000 647.3000 532.0000 560.6000 579.0000 594.8000 605.5000 620.1000 689.5000 774.8000 734.5000 668.2000 681.0000 750.4000 999.5000 1164.7000 1102.9000 923.2000 606.2000 619.9000 686.6000 592.2000 458.5000 408.4000 382.0000 379.7000 485.8000 727.7000 760.1000 597.5000 551.0000 609.4000 659.3000 620.6000 507.7000 513.1000 495.0000 415.2000 393.9000 356.4000 263.3000 292.9000 252.1000 193.9000 202.0000 206.9000 203.4000 187.1000 216.8000 351.3000 472.3000 526.3000 494.6000 507.5000 456.8000 450.4000 424.5000 505.5000 397.4000 390.2000 476.3000 407.2000 383.1000 440.8000 487.6000 512.0000 544.5000 616.8000 552.6000 505.2000 546.3000 591.3000 627.2000 544.0000 478.4000 459.1000 465.9000 407.9000 403.5000 406.2000 491.4000 498.5000 519.8000 516.9000 303.5000 195.5000 236.4000 286.1000 302.4000 359.8000 372.2000 460.7000 553.0000 570.3000 454.4000 260.2000 259.1000 267.9000 340.8000 424.1000 494.6000 539.0000 557.0000 486.2000 585.6000 503.7000 541.1000 511.5000 559.1000 481.3000 444.9000 377.0000 398.8000 473.5000 418.8000 339.0000 296.4000 331.8000 436.7000 404.1000 445.9000 442.4000 399.8000 387.3000 379.8000 374.5000 322.0000 295.0000 281.6000 331.2000 263.4000 275.1000 271.4000 308.2000 341.3000 364.1000 326.5000 284.3000 286.2000 241.4000 233.7000 222.1000 212.0000 209.0000 199.6000 206.3000 192.0000 216.1000 243.2000 207.4000 207.0000 251.7000 340.7000
0.0000 0.0000 0.0000 0.0000 0.0000 0.0000 0.0000 0.0000 0.0000 0.0000 0.0000 0.0000 0.0000 0.0000 0.4000 17.2000 3.6000 7.5000 17.7000 10.3000 6.6000 15.4000 17.9000 30.8000 38.9000 45.6000 52.4000 51.5000 45.4000 16.4000 2.1000 0.0000 0.0000 0.0000 0.0000 0.0000 0.0000 0.0000 0.0000 0.0000 0.0000 0.0000 0.0000 0.0000 0.0000 0.0000 0.0000 0.0000 0.0000 0.0000 0.0000 0.0000 0.0000 0.0000 0.0000 0.0000 0.0000 55.0000 295.1000 352.0000 283.9000 74.6000 10.2000 161.6000 216.7000 154.9000 114.3000 22.5000 0.0000 0.0000 0.0000 0.0000 0.0000 0.0000 0.0000 0.0000 0.0000 0.0000 0.0000 0.0000 0.0000 0.0000 0.0000 0.0000 0.0000 0.2000 43.5000 58.4000 56.8000 10.6000 1.7000 0.0000 0.0000 0.0000 0.0000 0.0000 0.0000 0.0000 0.0000 0.0000 0.2000 79.7000 305.0000 441.7000 614.4000 892.8000 1170.8000 1390.1000 1512.1000 1530.5000 1485.8000 1464.8000 1410.1000 1302.1000 1087.7000 951.4000 799.6000 750.0000 739.0000 772.3000 709.7000 726.8000 792.6000 864.1000 873.6000 913.8000 946.2000 888.6000 761.9000 682.8000 631.0000 680.1000 770.5000 763.4000 725.0000 585.2000 466.9000 450.3000 437.9000 459.0000 732.0000 830.1000 736.7000 778.5000 963.2000 991.4000 868.9000 871.1000 812.6000 765.6000 784.9000 807.5000 830.9000 947.9000 1020.4000 889.2000 835.5000 776.2000 844.2000 889.1000 895.6000 880.4000 817.5000 696.2000 676.0000 684.8000 829.0000 779.7000 785.1000 942.9000 1179.9000 1345.4000 1173.9000 1089.7000 936.0000 731.8000 510.8000 432.3000 397.7000 373.5000 362.9000 320.6000 424.7000 450.5000 400.3000 229.2000 234.8000 260.5000 458.1000 590.3000 712.8000 867.3000 954.4000 930.3000 887.5000 937.0000 934.0000 940.7000 999.7000 990.0000 850.8000 708.5000 575.0000 600.0000 598.4000 579.2000 548.9000 537.4000 592.3000 708.0000 777.0000 720.4000 687.8000 821.9000 1156.6000 1254.2000 1244.0000 1150.5000 869.8000 799.3000 809.0000 695.3000 566.0000 410.5000 379.3000 375.8000 449.9000 684.7000 737.1000 555.1000 544.5000 610.6000 666.9000 704.5000 586.9000 476.4000 456.2000 430.3000 393.7000 368.5000 257.6000 299.6000 272.4000 199.1000 177.3000 175.9000 177.7000 184.9000 225.1000 327.0000 420.8000 517.3000 453.3000 504.8000 544.8000 463.4000 454.6000 558.5000 473.1000 343.7000 399.8000 480.2000 423.7000 439.0000 484.8000 498.4000 518.1000 585.9000 609.3000 569.4000 528.5000 552.8000 681.1000 659.6000 490.4000 437.6000 453.7000 426.4000 347.5000 355.2000 386.8000 430.7000 443.1000 391.0000 448.6000 397.0000 323.8000 280.5000 283.8000 327.0000 325.1000 341.0000 359.0000 360.8000 372.2000 353.3000 301.9000 380.6000 379.8000 422.2000 462.1000 517.0000 507.6000 523.3000 598.0000 542.8000 636.0000 530.4000 598.8000 491.8000 420.5000 366.1000 512.8000 565.2000 524.0000 424.9000 407.9000 376.2000 420.3000 490.0000 470.6000 428.8000 386.8000 417.4000 400.1000 397.9000 349.3000 336.9000 356.8000 331.7000 305.3000 300.1000 287.1000 295.6000 354.9000 308.0000 295.6000 221.4000 211.5000 266.4000 342.2000 327.8000 261.4000 233.1000 202.4000 207.1000 218.6000 256.9000 244.6000 213.4000 229.2000 251.5000 323.0000
0.0000 0.0000 0.0000 0.0000 0.0000 0.0000 0.0000 0.0000 0.0000 0.0000 0.0000 0.0000 0.0000 0.0000 0.0000 0.0000 0.2000 3.6000 17.5000 19.8000 14.7000 19.5000 21.1000 32.6000 30.4000 40.5000 51.4000 51.8000 52.4000 17.5000 0.0000 0.0000 0.0000 0.0000 0.0000 0.0000 0.0000 0.0000 0.0000 0.0000 0.0000 0.0000 0.0000 0.0000 0.0000 0.0000 0.0000 0.0000 0.0000 0.0000 0.0000 0.0000 0.0000 0.0000 0.0000 0.0000 0.0000 32.5000 173.4000 230.2000 317.2000 216.7000 83.3000 124.3000 226.8000 146.8000 136.1000 48.6000 0.0000 0.0000 0.0000 0.0000 0.0000 0.0000 0.0000 0.0000 0.0000 0.0000 0.0000 0.0000 0.0000 0.0000 0.0000 0.0000 0.0000 0.0000 0.6000 11.6000 100.1000 93.2000 13.6000 0.0000 0.0000 0.0000 0.0000 0.0000 0.0000 0.0000 0.0000 0.0000 0.1000 105.8000 286.7000 460.8000 665.3000 919.9000 1089.2000 1366.9000 1531.7000 1509.0000 1508.0000 1473.7000 1446.8000 1460.9000 1373.6000 1289.6000 1075.5000 941.9000 902.5000 895.9000 802.3000 775.8000 731.1000 764.7000 831.0000 871.4000 938.6000 943.0000 881.6000 901.2000 842.0000 807.4000 871.2000 966.2000 969.5000 825.6000 657.7000 603.2000 559.8000 501.1000 589.6000 789.3000 726.6000 782.5000 869.2000 1088.0000 1054.1000 892.0000 805.2000 768.3000 778.3000 789.5000 864.0000 1012.5000 1102.4000 1011.3000 829.8000 777.4000 756.0000 797.4000 792.2000 820.7000 851.2000 712.4000 681.7000 657.6000 674.4000 647.0000 646.0000 831.6000 1031.5000 1198.9000 1265.3000 1136.1000 1080.0000 839.8000 594.7000 514.7000 520.8000 417.3000 368.0000 351.6000 425.3000 368.5000 277.2000 235.5000 243.9000 377.1000 378.1000 493.8000 661.4000 832.7000 1062.6000 1026.5000 974.7000 906.2000 882.2000 945.1000 1048.3000 1031.1000 949.2000 749.8000 685.0000 717.5000 683.8000 695.0000 587.6000 526.0000 534.4000 653.3000 792.1000 776.1000 761.9000 857.0000 1203.8000 1247.3000 1268.6000 1153.5000 1016.1000 1006.3000 991.4000 847.3000 708.0000 550.2000 409.4000 373.8000 379.3000 430.9000 485.8000 400.4000 492.6000 620.1000 675.1000 696.0000 667.2000 495.4000 477.6000 482.7000 448.8000 406.9000 322.2000 289.2000 285.1000 245.7000 228.6000 188.1000 180.2000 186.9000 219.0000 283.7000 317.8000 354.9000 411.9000 482.3000 441.2000 339.4000 341.5000 411.2000 441.5000 349.4000 407.1000 394.9000 487.9000 427.0000 503.9000 540.2000 531.0000 536.3000 538.3000 523.8000 531.5000 587.0000 714.7000 703.6000 576.6000 499.7000 467.7000 467.4000 411.6000 308.4000 278.7000 264.0000 282.1000 479.5000 516.5000 478.0000 471.9000 442.5000 336.2000 295.3000 306.1000 337.7000 326.3000 287.7000 289.6000 299.7000 249.3000 252.9000 328.4000 384.4000 464.4000 456.7000 421.7000 462.4000 593.7000 669.1000 690.4000 613.4000 617.5000 562.4000 483.5000 343.2000 454.3000 508.8000 587.1000 526.4000 466.5000 410.5000 411.2000 470.6000 530.5000 510.1000 432.9000 456.5000 431.9000 405.4000 335.2000 341.7000 408.7000 395.9000 364.6000 310.8000 301.4000 337.0000 325.3000 286.5000 234.3000 192.7000 273.4000 361.2000 409.8000 368.7000 290.8000 257.9000 217.5000 226.2000 230.2000 277.8000 248.0000 276.5000 246.9000 303.9000 353.5000
0.0000 0.0000 0.0000 0.0000 0.0000 0.0000 0.0000 0.0000 0.0000 0.0000 0.0000 0.0000 0.0000 0.0000 0.0000 0.0000 0.0000 0.9000 7.2000 15.2000 16.6000 26.7000 33.1000 27.2000 25.3000 32.6000 47.2000 51.1000 36.1000 11.1000 0.1000 0.0000 0.0000 0.0000 0.0000 0.0000 0.0000 0.0000 0.0000 0.0000 0.0000 0.0000 0.0000 0.0000 0.0000 0.0000 0.0000 0.0000 0.0000 0.0000 0.0000 0.0000 0.0000 0.0000 0.0000 0.0000 0.0000 1.5000 47.2000 80.8000 246.5000 250.6000 184.6000 151.5000 193.1000 137.9000 112.6000 69.9000 1.4000 0.0000 0.0000 0.0000 0.0000 0.0000 0.0000 0.0000 0.0000 0.0000 0.0000 0.0000 0.0000 0.0000 0.0000 0.0000 0.0000 0.0000 4.3000 3.9000 29.0000 105.4000 111.6000 39.5000 0.0000 0.0000 0.0000 0.0000 0.0000 0.0000 0.0000 0.0000 0.1000 82.4000 259.7000 464.9000 668.4000 948.3000 1146.3000 1381.1000 1475.1000 1471.6000 1413.7000 1533.8000 1463.5000 1441.0000 1334.6000 1309.5000 1272.7000 1154.7000 935.0000 837.4000 771.0000 864.1000 792.4000 748.6000 725.8000 737.5000 811.4000 854.2000 831.2000 799.1000 803.9000 778.3000 817.7000 909.0000 939.0000 932.6000 849.2000 736.6000 649.4000 636.0000 646.5000 691.9000 798.4000 782.0000 893.7000 1067.1000 1135.7000 980.5000 820.3000 820.5000 912.4000 862.1000 916.3000 993.9000 986.8000 967.5000 913.8000 786.6000 751.0000 761.3000 784.6000 880.4000 1016.1000 936.5000 828.0000 712.1000 639.8000 633.1000 627.4000 783.5000 881.6000 1037.5000 1292.3000 1123.4000 1003.5000 897.1000 733.9000 823.8000 813.6000 614.8000 455.5000 398.7000 416.1000 314.7000 234.8000 268.3000 271.0000 392.1000 470.0000 496.9000 574.4000 711.8000 945.2000 1125.6000 1080.3000 948.8000 875.2000 913.8000 997.6000 998.5000 992.5000 918.4000 864.8000 836.5000 868.5000 903.5000 736.1000 581.4000 538.7000 628.2000 812.3000 826.5000 851.5000 934.2000 1188.6000 1176.6000 1347.2000 1321.2000 1122.4000 1146.3000 1082.1000 977.8000 888.2000 758.1000 528.6000 396.1000 376.4000 377.4000 375.3000 373.6000 392.3000 511.2000 580.8000 613.6000 666.9000 575.6000 453.7000 581.8000 592.2000 619.0000 429.1000 418.4000 370.7000 304.7000 249.3000 225.4000 214.2000 183.2000 195.9000 306.1000 404.8000 462.0000 450.6000 367.7000 324.2000 296.6000 277.4000 279.6000 323.9000 348.1000 439.6000 411.9000 465.6000 494.0000 480.6000 550.0000 573.4000 634.4000 616.7000 515.0000 502.5000 505.7000 600.4000 647.3000 558.5000 615.7000 472.1000 472.4000 469.4000 350.1000 297.2000 273.2000 374.1000 569.0000 544.8000 464.8000 467.4000 489.5000 420.8000 333.0000 338.8000 360.2000 345.6000 321.6000 290.6000 272.2000 263.3000 234.9000 246.5000 289.8000 376.3000 397.8000 471.6000 559.5000 611.8000 721.9000 699.2000 712.9000 625.7000 537.0000 510.8000 454.2000 369.9000 464.0000 573.0000 530.0000 501.8000 431.1000 404.6000 457.9000 497.9000 513.5000 511.9000 454.3000 404.9000 400.2000 350.8000 389.2000 446.8000 405.6000 358.6000 307.6000 284.1000 293.0000 271.7000 283.4000 224.5000 193.5000 237.3000 318.0000 383.2000 385.0000 385.5000 286.0000 278.5000 271.2000 259.7000 276.4000 260.8000 345.2000 283.6000 270.8000 315.9000
0.0000 0.0000 0.0000 0.0000 0.0000 0.0000 0.0000 0.0000 0.0000 0.0000 0.0000 0.0000 0.0000 0.0000 0.0000 0.0000 0.0000 1.2000 2.3000 6.6000 13.9000 17.6000 19.2000 7.3000 7.2000 14.0000 37.1000 40.5000 21.3000 8.2000 0.3000 0.0000 0.0000 0.0000 0.0000 0.0000 0.0000 0.0000 0.0000 0.0000 0.0000 0.0000 0.0000 0.0000 0.0000 0.0000 0.0000 0.0000 0.0000 0.0000 0.0000 0.0000 0.0000 0.0000 0.0000 0.0000 0.0000 0.0000 6.0000 3.1000 100.7000 205.4000 188.5000 166.8000 152.9000 140.5000 84.4000 80.0000 12.6000 0.0000 0.0000 0.0000 0.0000 0.0000 0.0000 0.0000 0.0000 0.0000 0.0000 0.0000 0.0000 0.0000 0.0000 1.7000 6.6000 3.6000 1.0000 42.0000 26.4000 17.7000 92.8000 128.2000 55.9000 0.0000 0.0000 0.0000 0.0000 0.0000 0.0000 0.0000 0.0000 85.5000 236.3000 435.9000 562.7000 924.3000 1195.8000 1351.5000 1413.3000 1495.2000 1328.5000 1345.2000 1501.8000 1463.1000 1361.0000 1293.2000 1209.2000 1151.4000 1139.1000 935.3000 782.7000 701.1000 649.6000 648.1000 615.8000 586.1000 622.4000 668.2000 663.2000 681.3000 658.0000 666.8000 683.2000 785.4000 934.2000 937.4000 874.3000 769.6000 611.5000 629.6000 640.1000 687.2000 735.1000 746.4000 806.5000 907.8000 1023.8000 1045.7000 870.4000 758.0000 896.0000 958.1000 948.8000 959.9000 818.8000 760.8000 864.1000 786.6000 827.3000 907.0000 867.6000 963.8000 1105.0000 1182.7000 1074.9000 828.7000 656.7000 634.0000 626.2000 651.5000 703.0000 915.8000 1149.0000 1181.5000 1171.0000 992.2000 891.3000 870.3000 852.7000 757.3000 536.0000 520.7000 464.1000 366.2000 276.8000 393.5000 504.0000 482.2000 527.6000 573.8000 588.0000 663.5000 783.4000 1046.5000 1111.7000 992.8000 879.7000 871.8000 915.7000 939.6000 965.0000 964.7000 921.7000 890.4000 896.6000 951.2000 867.3000 676.6000 548.7000 608.0000 748.6000 781.1000 835.5000 975.5000 1129.0000 1108.2000 1260.1000 1205.9000 1209.3000 1302.7000 1229.4000 1079.4000 993.3000 918.1000 723.2000 563.4000 451.9000 384.6000 380.4000 402.4000 387.5000 386.5000 490.6000 592.8000 699.3000 638.0000 513.3000 417.0000 524.1000 665.9000 572.3000 473.4000 419.1000 373.4000 329.2000 257.4000 228.5000 202.6000 180.9000 216.3000 320.6000 295.6000 378.8000 277.5000 340.5000 467.5000 494.6000 530.3000 552.8000 389.7000 449.9000 471.7000 512.4000 594.1000 577.3000 547.2000 571.6000 605.9000 567.4000 520.3000 518.0000 496.9000 500.7000 605.6000 580.5000 608.1000 497.1000 475.8000 448.3000 355.2000 325.6000 331.8000 740.3000 687.9000 705.6000 547.9000 489.6000 471.7000 457.2000 344.2000 348.6000 359.3000 389.7000 343.8000 309.3000 287.6000 278.6000 259.8000 246.6000 264.1000 319.8000 375.8000 436.5000 527.7000 583.6000 572.7000 674.5000 756.6000 751.7000 691.8000 687.8000 529.2000 459.5000 403.1000 417.2000 425.9000 469.7000 463.7000 442.0000 422.3000 421.8000 436.0000 423.6000 427.3000 466.4000 441.2000 437.7000 419.5000 382.5000 395.7000 355.4000 329.6000 278.0000 240.7000 236.5000 243.0000 209.5000 198.4000 198.1000 247.7000 334.2000 325.1000 374.1000 351.1000 334.4000 333.5000 346.6000 276.9000 284.6000 329.1000 337.1000 267.0000 376.1000
0.0000 0.0000 0.0000 0.0000 0.0000 0.0000 0.0000 0.0000 0.0000 0.0000 0.0000 0.0000 0.0000 0.0000 0.0000 0.0000 0.0000 0.0000 0.2000 4.2000 8.2000 8.5000 5.8000 1.9000 0.1000 1.7000 11.0000 19.7000 22.7000 2.1000 0.2000 0.0000 0.0000 0.0000 0.0000 0.0000 0.0000 0.0000 0.0000 0.0000 0.0000 0.0000 0.0000 0.0000 0.0000 0.0000 0.0000 0.0000 0.0000 0.0000 0.0000 0.0000 0.0000 0.0000 0.0000 0.0000 0.0000 0.0000 0.0000 0.0000 18.0000 136.9000 150.9000 151.3000 158.5000 145.8000 80.6000 39.9000 20.5000 0.0000 0.0000 0.0000 0.0000 0.0000 0.0000 0.0000 0.0000 0.0000 0.0000 0.0000 0.0000 0.0000 0.0000 10.4000 40.5000 43.9000 27.1000 15.4000 65.3000 52.1000 31.0000 136.2000 239.3000 97.0000 0.8000 0.0000 0.0000 0.0000 0.0000 0.0000 0.0000 37.5000 216.8000 394.1000 519.8000 917.7000 1218.4000 1387.7000 1404.2000 1511.4000 1421.2000 1408.1000 1315.9000 1337.7000 1325.0000 1343.1000 1256.5000 1128.0000 1118.8000 1095.9000 938.0000 773.2000 658.8000 615.0000 517.8000 467.5000 474.4000 479.5000 497.3000 520.9000 560.0000 592.2000 643.8000 684.1000 711.1000 825.7000 909.6000 864.1000 691.9000 606.9000 615.2000 611.9000 654.9000 755.1000 795.7000 831.6000 892.9000 957.9000 859.4000 764.3000 835.8000 935.5000 999.3000 860.1000 746.0000 745.3000 809.5000 755.4000 909.3000 968.3000 936.7000 983.9000 1102.8000 1147.4000 1097.4000 887.8000 711.6000 648.2000 635.6000 625.1000 632.2000 714.8000 892.4000 922.8000 1005.8000 1164.1000 981.2000 929.4000 904.3000 766.2000 685.3000 675.2000 614.3000 508.3000 336.6000 431.4000 715.6000 656.9000 498.6000 654.9000 653.1000 615.3000 627.4000 777.4000 970.6000 994.2000 907.4000 895.5000 883.3000 933.2000 1020.9000 1035.4000 1009.2000 947.5000 940.4000 946.6000 840.5000 691.4000 562.1000 585.2000 670.1000 727.3000 877.1000 1065.6000 1143.7000 1167.2000 1144.5000 1054.2000 1169.9000 1193.3000 1137.2000 1009.7000 949.3000 961.2000 854.7000 745.8000 658.3000 580.4000 530.3000 495.3000 443.3000 384.6000 388.4000 482.8000 688.0000 642.5000 587.3000 435.1000 436.8000 621.4000 674.6000 578.6000 491.2000 408.4000 362.0000 283.7000 223.4000 213.1000 214.3000 231.1000 222.9000 218.5000 307.8000 331.2000 676.0000 638.4000 586.6000 663.7000 638.6000 510.0000 484.2000 547.9000 532.0000 597.0000 645.5000 652.0000 667.6000 608.3000 640.5000 560.8000 560.0000 516.5000 486.7000 500.0000 546.5000 551.3000 524.0000 448.4000 453.9000 439.7000 361.7000 284.7000 651.2000 773.4000 741.0000 792.2000 714.3000 553.8000 466.3000 426.9000 471.0000 483.9000 465.5000 456.7000 405.6000 361.7000 343.5000 307.3000 246.7000 259.0000 284.5000 323.7000 356.2000 428.9000 524.7000 569.9000 661.2000 744.8000 702.6000 856.0000 769.0000 667.9000 578.6000 596.0000 578.3000 510.5000 558.5000 563.3000 526.3000 523.2000 531.1000 486.6000 422.8000 382.6000 368.0000 375.0000 344.6000 343.8000 325.3000 333.9000 358.9000 319.9000 267.1000 260.3000 245.0000 213.9000 213.2000 213.7000 199.9000 225.2000 295.1000 377.5000 399.6000 479.9000 420.0000 365.3000 404.8000 387.3000 317.9000 306.8000 314.5000 292.6000 389.3000
0.0000 0.0000 0.0000 0.0000 0.0000 0.0000 0.0000 0.0000 0.0000 0.0000 0.0000 0.0000 0.0000 0.0000 0.0000 0.0000 0.0000 0.0000 0.0000 0.5000 9.6000 19.5000 18.7000 19.8000 14.6000 0.5000 1.9000 15.4000 19.0000 11.9000 4.9000 0.7000 0.0000 0.0000 0.0000 0.0000 0.0000 0.0000 0.0000 0.0000 0.0000 0.0000 0.0000 0.0000 0.0000 0.0000 0.0000 0.0000 0.0000 0.0000 0.0000 0.0000 0.0000 0.0000 0.0000 0.0000 0.0000 0.0000 0.0000 0.0000 22.3000 105.3000 119.5000 119.3000 164.1000 150.4000 89.4000 0.8000 1.2000 0.0000 0.0000 0.0000 0.0000 0.0000 0.0000 0.0000 0.0000 0.0000 0.0000 0.0000 0.0000 0.0000 0.0000 0.4000 24.6000 57.9000 77.4000 48.4000 18.0000 44.1000 56.2000 57.7000 210.6000 333.3000 162.0000 3.0000 0.0000 0.0000 0.0000 0.0000 0.0000 25.5000 204.0000 380.3000 556.5000 866.8000 1235.0000 1404.9000 1389.7000 1532.8000 1560.1000 1442.0000 1514.7000 1389.4000 1248.3000 1220.4000 1246.5000 1183.4000 1141.6000 1140.7000 1102.0000 1040.1000 1014.3000 867.0000 695.1000 582.9000 496.1000 470.6000 467.1000 470.4000 478.3000 502.2000 563.4000 582.0000 571.8000 634.1000 808.4000 793.4000 765.5000 630.5000 622.8000 622.6000 619.6000 675.9000 808.1000 892.5000 872.1000 860.1000 853.9000 689.5000 712.3000 739.7000 878.9000 907.7000 927.0000 820.5000 825.1000 838.2000 935.0000 947.1000 899.0000 867.4000 961.9000 1139.8000 1097.5000 931.5000 770.2000 702.5000 637.4000 630.8000 624.6000 625.3000 867.8000 869.9000 904.7000 1196.6000 1285.4000 1152.7000 1048.5000 947.6000 872.5000 811.5000 679.3000 629.1000 400.2000 366.6000 437.9000 578.5000 710.8000 726.5000 745.2000 694.1000 638.5000 662.4000 738.3000 798.6000 807.5000 863.7000 936.7000 924.4000 1007.6000 1019.1000 1007.2000 999.1000 1011.4000 1025.4000 805.6000 600.8000 560.7000 600.3000 697.4000 809.0000 969.4000 1155.0000 1188.2000 1147.1000 1043.4000 1095.4000 1157.9000 1163.8000 1042.7000 956.9000 957.6000 1075.3000 954.0000 890.6000 841.8000 954.6000 863.1000 737.8000 629.6000 514.6000 401.8000 465.1000 569.4000 580.0000 582.2000 559.4000 506.2000 489.7000 509.2000 464.0000 432.6000 414.1000 365.9000 318.4000 270.7000 260.6000 203.1000 232.2000 283.6000 219.9000 261.2000 500.1000 743.8000 815.0000 727.3000 670.4000 713.0000 698.9000 604.5000 623.8000 615.2000 587.4000 619.4000 667.6000 763.8000 747.2000 723.8000 631.2000 622.4000 588.7000 537.1000 479.1000 509.3000 532.9000 575.3000 439.0000 438.8000 474.3000 390.2000 257.2000 436.9000 651.4000 751.8000 732.8000 701.6000 667.2000 521.1000 472.9000 477.9000 512.1000 542.0000 576.4000 517.4000 520.9000 464.0000 374.6000 280.0000 261.4000 275.6000 319.8000 339.4000 371.0000 413.5000 503.5000 551.6000 641.4000 620.3000 709.4000 872.3000 812.6000 817.3000 723.1000 681.3000 654.7000 579.1000 618.3000 591.4000 633.2000 608.6000 610.4000 558.9000 419.9000 375.6000 376.5000 326.3000 297.3000 285.5000 272.5000 284.7000 303.5000 253.1000 224.1000 222.8000 228.3000 244.0000 238.5000 208.4000 206.7000 267.6000 350.9000 410.6000 452.8000 461.1000 512.3000 452.5000 454.9000 386.0000 331.6000 316.6000 283.8000 376.4000
0.0000 0.0000 0.0000 0.0000 0.0000 0.0000 0.0000 0.0000 0.0000 0.0000 0.0000 0.0000 0.0000 0.0000 0.0000 0.0000 0.0000 0.0000 0.0000 0.0000 0.1000 1.4000 0.2000 5.2000 20.3000 0.6000 0.0000 0.2000 0.3000 0.4000 0.3000 0.2000 0.0000 0.0000 0.0000 0.0000 0.0000 0.0000 0.0000 0.0000 0.0000 0.0000 0.0000 0.0000 0.0000 0.0000 0.0000 0.0000 0.0000 0.0000 0.0000 0.0000 0.0000 0.0000 0.0000 0.0000 3.3000 0.0000 0.0000 0.0000 34.8000 101.0000 101.7000 116.7000 142.2000 133.9000 86.6000 10.3000 0.0000 0.0000 0.0000 0.0000 0.0000 0.0000 0.0000 0.0000 0.0000 0.0000 0.0000 0.0000 0.0000 0.0000 0.0000 0.0000 4.1000 29.1000 49.7000 65.3000 47.3000 18.1000 14.9000 33.5000 76.0000 250.1000 339.3000 182.5000 5.0000 0.0000 0.0000 0.0000 0.0000 2.2000 155.3000 338.1000 581.3000 869.4000 1235.4000 1422.0000 1402.4000 1481.6000 1514.3000 1416.9000 1401.3000 1422.6000 1255.9000 1185.9000 1145.4000 1088.4000 1013.4000 1057.1000 1048.6000 1071.6000 1066.9000 978.7000 836.3000 746.1000 712.7000 670.5000 578.8000 479.1000 472.3000 471.0000 497.8000 591.5000 569.6000 564.6000 648.9000 654.3000 665.6000 644.5000 586.9000 617.9000 624.5000 626.9000 687.9000 842.1000 972.8000 993.6000 920.1000 734.1000 659.3000 741.1000 851.8000 822.3000 872.0000 929.5000 874.3000 919.9000 871.6000 872.9000 800.3000 753.4000 877.7000 1100.4000 1088.0000 858.8000 803.3000 692.6000 689.0000 652.7000 639.8000 645.6000 685.9000 723.8000 758.2000 1100.5000 1438.9000 1452.8000 1218.4000 1095.0000 1007.8000 914.9000 807.4000 741.6000 560.6000 455.6000 345.9000 517.2000 691.0000 768.3000 800.6000 832.4000 747.4000 704.8000 759.8000 735.3000 729.1000 761.2000 862.4000 912.1000 979.5000 1019.2000 1012.7000 998.4000 949.3000 910.9000 749.1000 650.2000 561.0000 593.0000 681.2000 853.3000 1026.4000 1160.2000 1224.2000 1145.4000 1118.4000 1185.0000 1107.4000 1051.6000 1016.8000 987.4000 1026.3000 1070.0000 1041.2000 1017.7000 803.8000 874.6000 875.7000 850.3000 823.7000 697.4000 548.6000 554.7000 598.5000 572.1000 679.5000 746.5000 701.0000 547.7000 456.7000 438.9000 426.0000 435.4000 426.6000 375.7000 333.0000 280.7000 236.1000 247.7000 282.8000 287.4000 310.1000 512.3000 790.6000 810.8000 698.2000 701.9000 802.5000 818.1000 783.9000 757.1000 672.2000 611.4000 650.9000 666.8000 695.2000 747.0000 769.4000 689.4000 689.8000 751.6000 729.5000 605.2000 531.4000 526.6000 509.4000 462.4000 434.2000 432.3000 397.7000 318.9000 344.4000 471.2000 552.0000 673.5000 698.5000 744.0000 670.5000 539.7000 489.4000 557.0000 594.6000 571.1000 600.9000 575.5000 538.1000 437.8000 356.0000 280.9000 294.5000 296.0000 331.3000 363.1000 374.1000 397.8000 441.7000 470.7000 545.2000 702.0000 723.8000 656.3000 735.8000 802.3000 800.0000 742.8000 615.4000 714.3000 770.4000 785.9000 723.1000 603.1000 577.6000 539.8000 418.4000 351.5000 337.1000 316.5000 312.7000 289.5000 265.5000 270.3000 243.1000 248.4000 259.5000 248.3000 269.2000 257.1000 223.1000 210.8000 228.3000 274.4000 330.0000 394.4000 489.3000 568.1000 551.5000 531.5000 526.0000 438.3000 333.6000 312.5000 350.2000
0.0000 0.0000 0.0000 0.0000 0.0000 0.0000 0.0000 0.0000 0.0000 0.0000 0.0000 0.0000 0.0000 0.0000 0.0000 0.0000 0.0000 0.0000 0.0000 0.0000 0.0000 0.0000 0.0000 4.1000 12.8000 0.0000 0.0000 0.0000 0.0000 0.0000 0.0000 0.0000 0.0000 0.0000 0.0000 0.0000 0.0000 0.0000 0.0000 0.0000 0.0000 0.0000 0.0000 0.0000 0.0000 0.0000 0.0000 0.0000 0.0000 0.0000 0.0000 0.0000 0.0000 0.0000 0.0000 0.2000 1.8000 0.0000 0.0000 0.0000 6.0000 92.5000 134.7000 159.4000 132.5000 122.6000 137.8000 96.6000 4.2000 0.0000 0.0000 0.0000 0.0000 0.0000 0.0000 0.0000 0.0000 0.0000 0.0000 0.0000 0.0000 0.0000 0.0000 0.0000 0.0000 0.4000 12.3000 16.4000 15.5000 11.0000 1.9000 2.4000 20.4000 76.0000 235.8000 279.4000 169.7000 14.9000 0.0000 0.0000 0.0000 0.0000 88.3000 268.2000 505.3000 892.2000 1218.7000 1429.9000 1490.8000 1515.6000 1551.5000 1393.6000 1291.0000 1311.3000 1250.2000 1132.4000 1102.1000 1161.9000 961.3000 888.0000 905.4000 942.5000 957.7000 971.4000 890.9000 813.8000 807.9000 771.9000 728.5000 689.9000 538.7000 475.0000 480.2000 509.9000 537.5000 539.8000 547.2000 564.3000 577.8000 571.7000 577.9000 590.5000 622.3000 634.2000 647.3000 702.9000 786.6000 832.8000 848.4000 824.1000 768.4000 795.8000 926.6000 930.3000 849.2000 870.2000 915.8000 915.9000 842.2000 765.0000 686.4000 680.6000 766.8000 998.6000 953.4000 785.0000 794.1000 724.6000 645.3000 631.7000 648.4000 620.3000 590.4000 588.9000 616.5000 947.6000 1258.5000 1352.1000 1485.7000 1274.4000 1100.8000 1000.5000 911.6000 751.6000 548.6000 457.5000 322.7000 428.0000 593.7000 736.9000 801.8000 800.7000 852.5000 685.5000 704.3000 741.1000 717.0000 746.4000 783.6000 843.1000 937.0000 1041.2000 1022.8000 1018.9000 966.5000 794.3000 695.9000 606.5000 555.3000 587.2000 669.2000 763.2000 935.9000 1098.0000 1134.1000 1119.2000 1220.5000 1214.9000 1155.4000 1043.4000 1111.7000 1071.1000 1111.9000 1092.2000 1146.1000 1050.0000 750.9000 764.0000 806.3000 846.4000 898.1000 844.0000 767.7000 723.4000 707.2000 687.1000 662.0000 703.4000 834.4000 785.6000 703.0000 559.0000 488.9000 451.7000 457.7000 427.6000 376.8000 283.0000 315.9000 348.1000 395.0000 361.9000 273.8000 360.8000 671.6000 918.6000 761.2000 712.0000 822.3000 901.9000 799.7000 820.2000 690.6000 701.3000 671.1000 715.5000 696.9000 749.5000 823.4000 730.9000 673.9000 724.2000 846.0000 939.5000 729.6000 648.9000 649.8000 529.6000 330.0000 286.5000 313.1000 275.7000 278.8000 437.1000 433.1000 478.5000 566.4000 702.8000 701.3000 529.2000 515.5000 578.6000 666.1000 578.4000 601.3000 606.8000 638.4000 597.2000 488.9000 355.3000 348.6000 283.5000 303.6000 336.8000 350.5000 375.4000 387.4000 408.7000 471.9000 571.6000 610.5000 568.9000 628.3000 778.5000 887.1000 796.8000 729.4000 804.3000 924.0000 774.6000 684.8000 677.5000 568.8000 529.1000 524.5000 411.5000 360.5000 352.7000 349.5000 318.5000 315.6000 297.6000 284.4000 303.3000 299.3000 282.6000 289.3000 261.2000 234.8000 215.2000 225.1000 279.0000 311.9000 327.3000 438.8000 503.2000 588.4000 582.0000 634.3000 476.3000 429.9000 467.3000 456.0000
